ply
format ascii 1.0
comment created by gply, a Houdini tool.
comment converted from .[b]geo
comment for more information about Houdini, try:
comment www.sidefx.com
element vertex 1262
property float x
property float y
property float z
element face 0
property list uchar int vertex_indices
end_header
-0.0728000402 1.03699994 0.32980001 
-0.0606000423 1.02479994 0.317600012 
-0.0606000423 1.02479994 0.32980001 
-0.0606000423 1.03699994 0.317600012 
-0.0606000423 1.03699994 0.32980001 
-0.0728000402 1.02479994 0.342000008 
-0.0728000402 1.02479994 0.354200006 
-0.0728000402 1.03699994 0.342000008 
-0.0606000423 1.02479994 0.342000008 
-0.0606000423 1.02479994 0.354200006 
-0.0606000423 1.03699994 0.342000008 
-0.0606000423 1.03699994 0.354200006 
-0.0728000402 1.04919994 0.171200037 
-0.0728000402 1.04919994 0.183400035 
-0.0728000402 1.06139994 0.171200037 
-0.0606000423 1.04919994 0.171200037 
-0.0606000423 1.04919994 0.183400035 
-0.0606000423 1.06139994 0.171200037 
-0.0606000423 1.06139994 0.183400035 
-0.0728000402 1.04919994 0.195600033 
-0.0728000402 1.04919994 0.207800031 
-0.0606000423 1.04919994 0.195600033 
-0.0606000423 1.04919994 0.207800031 
-0.0606000423 1.06139994 0.195600033 
-0.0728000402 1.04919994 0.220000029 
-0.0728000402 1.04919994 0.232200027 
-0.0606000423 1.04919994 0.220000029 
-0.0606000423 1.04919994 0.232200027 
-0.0728000402 1.04919994 0.244400024 
-0.0728000402 1.04919994 0.256600022 
-0.0606000423 1.04919994 0.244400024 
-0.0606000423 1.04919994 0.256600022 
-0.0728000402 1.04919994 0.26880002 
-0.0728000402 1.04919994 0.281000018 
-0.0606000423 1.04919994 0.26880002 
-0.0606000423 1.04919994 0.281000018 
-0.0728000402 1.04919994 0.293200016 
-0.0728000402 1.04919994 0.305400014 
-0.0606000423 1.04919994 0.293200016 
-0.0606000423 1.04919994 0.305400014 
-0.0606000423 1.04919994 0.317600012 
-0.0484000444 0.975999951 0.171200037 
-0.0484000444 0.975999951 0.183400035 
-0.0484000444 0.988200009 0.171200037 
-0.0484000444 0.988200009 0.183400035 
-0.0362000465 0.975999951 0.171200037 
-0.0362000465 0.975999951 0.183400035 
-0.0362000465 0.988200009 0.171200037 
-0.0362000465 0.988200009 0.183400035 
-0.0484000444 0.975999951 0.195600033 
-0.0484000444 0.975999951 0.207800031 
-0.0484000444 0.988200009 0.195600033 
-0.0484000444 0.988200009 0.207800031 
-0.0362000465 0.975999951 0.195600033 
-0.0362000465 0.975999951 0.207800031 
-0.0362000465 0.988200009 0.195600033 
-0.0362000465 0.988200009 0.207800031 
-0.0484000444 0.975999951 0.220000029 
-0.0484000444 0.975999951 0.232200027 
-0.0484000444 0.988200009 0.220000029 
-0.0484000444 0.988200009 0.232200027 
-0.0362000465 0.975999951 0.220000029 
-0.0362000465 0.975999951 0.232200027 
-0.0362000465 0.988200009 0.220000029 
-0.0362000465 0.988200009 0.232200027 
-0.0484000444 0.975999951 0.244400024 
-0.0484000444 0.975999951 0.256600022 
-0.0484000444 0.988200009 0.244400024 
-0.0484000444 0.988200009 0.256600022 
-0.0362000465 0.975999951 0.244400024 
-0.0362000465 0.975999951 0.256600022 
-0.0362000465 0.988200009 0.244400024 
-0.0362000465 0.988200009 0.256600022 
-0.0484000444 0.975999951 0.26880002 
-0.0484000444 0.975999951 0.281000018 
-0.0484000444 0.988200009 0.26880002 
-0.0484000444 0.988200009 0.281000018 
-0.0362000465 0.975999951 0.26880002 
-0.0362000465 0.975999951 0.281000018 
-0.0362000465 0.988200009 0.26880002 
-0.0362000465 0.988200009 0.281000018 
-0.0484000444 0.975999951 0.293200016 
-0.0484000444 0.975999951 0.305400014 
-0.0484000444 0.988200009 0.293200016 
-0.0484000444 0.988200009 0.305400014 
-0.0362000465 0.975999951 0.293200016 
-0.0362000465 0.975999951 0.305400014 
-0.0362000465 0.988200009 0.293200016 
-0.0362000465 0.988200009 0.305400014 
-0.0484000444 0.975999951 0.317600012 
-0.0484000444 0.975999951 0.32980001 
-0.0484000444 0.988200009 0.317600012 
-0.0484000444 0.988200009 0.32980001 
-0.0362000465 0.975999951 0.317600012 
-0.0362000465 0.975999951 0.32980001 
-0.0362000465 0.988200009 0.317600012 
-0.0362000465 0.988200009 0.32980001 
-0.0484000444 0.975999951 0.342000008 
-0.0484000444 0.975999951 0.354200006 
-0.0484000444 0.988200009 0.342000008 
-0.0484000444 0.988200009 0.354200006 
-0.0362000465 0.975999951 0.342000008 
-0.0362000465 0.975999951 0.354200006 
-0.0362000465 0.988200009 0.342000008 
-0.0362000465 0.988200009 0.354200006 
-0.0484000444 1.00039995 0.171200037 
-0.0484000444 1.00039995 0.183400035 
-0.0484000444 1.01259995 0.171200037 
-0.0484000444 1.01259995 0.183400035 
-0.0362000465 1.00039995 0.171200037 
-0.0362000465 1.00039995 0.183400035 
-0.0362000465 1.01259995 0.171200037 
-0.0362000465 1.01259995 0.183400035 
-0.0484000444 1.00039995 0.195600033 
-0.0484000444 1.00039995 0.207800031 
-0.0484000444 1.01259995 0.195600033 
-0.0484000444 1.01259995 0.207800031 
-0.0362000465 1.00039995 0.195600033 
-0.0362000465 1.00039995 0.207800031 
-0.0362000465 1.01259995 0.195600033 
-0.0362000465 1.01259995 0.207800031 
-0.0484000444 1.00039995 0.220000029 
-0.0484000444 1.00039995 0.232200027 
-0.0484000444 1.01259995 0.220000029 
-0.0484000444 1.01259995 0.232200027 
-0.0362000465 1.00039995 0.220000029 
-0.0362000465 1.00039995 0.232200027 
-0.0362000465 1.01259995 0.220000029 
-0.0362000465 1.01259995 0.232200027 
-0.0484000444 1.00039995 0.244400024 
-0.0484000444 1.00039995 0.256600022 
-0.0484000444 1.01259995 0.244400024 
-0.0484000444 1.01259995 0.256600022 
-0.0362000465 1.00039995 0.244400024 
-0.0362000465 1.00039995 0.256600022 
-0.0362000465 1.01259995 0.244400024 
-0.0362000465 1.01259995 0.256600022 
-0.0484000444 1.00039995 0.26880002 
-0.0484000444 1.00039995 0.281000018 
-0.0484000444 1.01259995 0.26880002 
-0.0484000444 1.01259995 0.281000018 
-0.0362000465 1.00039995 0.26880002 
-0.0362000465 1.00039995 0.281000018 
-0.0362000465 1.01259995 0.26880002 
-0.0362000465 1.01259995 0.281000018 
-0.0484000444 1.00039995 0.293200016 
-0.0484000444 1.00039995 0.305400014 
-0.0484000444 1.01259995 0.293200016 
-0.0484000444 1.01259995 0.305400014 
-0.0362000465 1.00039995 0.293200016 
-0.0362000465 1.00039995 0.305400014 
-0.0362000465 1.01259995 0.293200016 
-0.0362000465 1.01259995 0.305400014 
-0.0484000444 1.00039995 0.317600012 
-0.0484000444 1.00039995 0.32980001 
-0.0484000444 1.01259995 0.317600012 
-0.0484000444 1.01259995 0.32980001 
-0.0362000465 1.00039995 0.317600012 
-0.0362000465 1.00039995 0.32980001 
-0.0362000465 1.01259995 0.317600012 
-0.0362000465 1.01259995 0.32980001 
-0.0484000444 1.00039995 0.342000008 
-0.0484000444 1.00039995 0.354200006 
-0.0484000444 1.01259995 0.342000008 
-0.0484000444 1.01259995 0.354200006 
-0.0362000465 1.00039995 0.342000008 
-0.0362000465 1.00039995 0.354200006 
-0.0362000465 1.01259995 0.342000008 
-0.0362000465 1.01259995 0.354200006 
-0.0484000444 1.02479994 0.171200037 
-0.0484000444 1.02479994 0.183400035 
-0.0484000444 1.03699994 0.171200037 
-0.0484000444 1.03699994 0.183400035 
-0.0362000465 1.02479994 0.171200037 
-0.0362000465 1.02479994 0.183400035 
-0.0362000465 1.03699994 0.171200037 
-0.0362000465 1.03699994 0.183400035 
-0.0484000444 1.02479994 0.195600033 
-0.0484000444 1.02479994 0.207800031 
-0.0484000444 1.03699994 0.195600033 
-0.0484000444 1.03699994 0.207800031 
-0.0362000465 1.02479994 0.195600033 
-0.0362000465 1.02479994 0.207800031 
-0.0362000465 1.03699994 0.195600033 
-0.0362000465 1.03699994 0.207800031 
-0.0484000444 1.02479994 0.220000029 
-0.0484000444 1.02479994 0.232200027 
-0.0484000444 1.03699994 0.220000029 
-0.0484000444 1.03699994 0.232200027 
-0.0362000465 1.02479994 0.220000029 
-0.0362000465 1.02479994 0.232200027 
-0.0362000465 1.03699994 0.220000029 
-0.0362000465 1.03699994 0.232200027 
-0.0484000444 1.02479994 0.244400024 
-0.0484000444 1.02479994 0.256600022 
-0.0484000444 1.03699994 0.244400024 
-0.0484000444 1.03699994 0.256600022 
-0.0362000465 1.02479994 0.244400024 
-0.0362000465 1.02479994 0.256600022 
-0.0362000465 1.03699994 0.244400024 
-0.0362000465 1.03699994 0.256600022 
-0.0484000444 1.02479994 0.26880002 
-0.0484000444 1.02479994 0.281000018 
-0.0484000444 1.03699994 0.26880002 
-0.0484000444 1.03699994 0.281000018 
-0.0362000465 1.02479994 0.26880002 
-0.0362000465 1.02479994 0.281000018 
-0.0362000465 1.03699994 0.26880002 
-0.0362000465 1.03699994 0.281000018 
-0.0484000444 1.02479994 0.293200016 
-0.0484000444 1.02479994 0.305400014 
-0.0484000444 1.03699994 0.293200016 
-0.0484000444 1.03699994 0.305400014 
-0.0362000465 1.02479994 0.293200016 
-0.0362000465 1.02479994 0.305400014 
-0.0362000465 1.03699994 0.293200016 
-0.0362000465 1.03699994 0.305400014 
-0.0484000444 1.02479994 0.317600012 
-0.0484000444 1.02479994 0.32980001 
-0.0484000444 1.03699994 0.317600012 
-0.0484000444 1.03699994 0.32980001 
-0.0362000465 1.02479994 0.317600012 
-0.0362000465 1.02479994 0.32980001 
-0.0362000465 1.03699994 0.317600012 
-0.0362000465 1.03699994 0.32980001 
-0.0484000444 1.02479994 0.342000008 
-0.0484000444 1.02479994 0.354200006 
-0.0484000444 1.03699994 0.342000008 
-0.0484000444 1.03699994 0.354200006 
-0.0362000465 1.02479994 0.342000008 
-0.0362000465 1.02479994 0.354200006 
-0.0362000465 1.03699994 0.342000008 
-0.0362000465 1.03699994 0.354200006 
-0.0484000444 1.04919994 0.171200037 
-0.0484000444 1.04919994 0.183400035 
-0.0484000444 1.06139994 0.171200037 
-0.0484000444 1.06139994 0.183400035 
-0.0362000465 1.04919994 0.171200037 
-0.0362000465 1.04919994 0.183400035 
-0.0362000465 1.06139994 0.171200037 
-0.0362000465 1.06139994 0.183400035 
-0.0484000444 1.04919994 0.195600033 
-0.0484000444 1.04919994 0.207800031 
-0.0484000444 1.06139994 0.195600033 
-0.0484000444 1.06139994 0.207800031 
-0.0362000465 1.04919994 0.195600033 
-0.0362000465 1.04919994 0.207800031 
-0.0362000465 1.06139994 0.195600033 
-0.0362000465 1.06139994 0.207800031 
-0.0484000444 1.04919994 0.220000029 
-0.0484000444 1.04919994 0.232200027 
-0.0484000444 1.06139994 0.220000029 
-0.0484000444 1.06139994 0.232200027 
-0.0362000465 1.04919994 0.220000029 
-0.0362000465 1.04919994 0.232200027 
-0.0362000465 1.06139994 0.220000029 
-0.0362000465 1.06139994 0.232200027 
-0.0484000444 1.04919994 0.244400024 
-0.0484000444 1.04919994 0.256600022 
-0.0484000444 1.06139994 0.244400024 
-0.0484000444 1.06139994 0.256600022 
-0.0362000465 1.04919994 0.244400024 
-0.0362000465 1.04919994 0.256600022 
-0.0362000465 1.06139994 0.244400024 
-0.0362000465 1.06139994 0.256600022 
-0.0484000444 1.04919994 0.26880002 
-0.0484000444 1.04919994 0.281000018 
-0.0484000444 1.06139994 0.26880002 
-0.0362000465 1.04919994 0.26880002 
-0.0362000465 1.04919994 0.281000018 
-0.0362000465 1.06139994 0.26880002 
-0.0362000465 1.06139994 0.281000018 
-0.0484000444 1.04919994 0.293200016 
-0.0484000444 1.04919994 0.305400014 
-0.0362000465 1.04919994 0.293200016 
-0.0362000465 1.04919994 0.305400014 
-0.0362000465 1.06139994 0.293200016 
-0.0484000444 1.04919994 0.317600012 
-0.0484000444 1.04919994 0.32980001 
-0.0362000465 1.04919994 0.317600012 
-0.0362000465 1.04919994 0.32980001 
-0.0362000465 1.04919994 0.342000008 
-0.13380003 0.975999951 0.366400003 
-0.121600032 0.975999951 0.366400003 
-0.121600032 0.975999951 0.378600001 
-0.121600032 0.988200009 0.366400003 
-0.109400034 0.975999951 0.366400003 
-0.109400034 0.975999951 0.378600001 
-0.109400034 0.988200009 0.366400003 
-0.109400034 0.988200009 0.378600001 
-0.109400034 0.975999951 0.390799999 
-0.109400034 1.00039995 0.366400003 
-0.097200036 0.975999951 0.366400003 
-0.097200036 0.975999951 0.378600001 
-0.097200036 0.988200009 0.366400003 
-0.097200036 0.988200009 0.378600001 
-0.0850000381 0.975999951 0.366400003 
-0.0850000381 0.975999951 0.378600001 
-0.0850000381 0.988200009 0.366400003 
-0.0850000381 0.988200009 0.378600001 
-0.097200036 0.975999951 0.390799999 
-0.097200036 0.975999951 0.402999997 
-0.097200036 0.988200009 0.390799999 
-0.0850000381 0.975999951 0.390799999 
-0.0850000381 0.975999951 0.402999997 
-0.0850000381 0.988200009 0.390799999 
-0.0850000381 0.988200009 0.402999997 
-0.097200036 1.00039995 0.366400003 
-0.097200036 1.00039995 0.378600001 
-0.0850000381 1.00039995 0.366400003 
-0.0850000381 1.00039995 0.378600001 
-0.0850000381 1.01259995 0.366400003 
-0.0850000381 1.00039995 0.390799999 
-0.0728000402 0.975999951 0.366400003 
-0.0728000402 0.975999951 0.378600001 
-0.0728000402 0.988200009 0.366400003 
-0.0728000402 0.988200009 0.378600001 
-0.0606000423 0.975999951 0.366400003 
-0.0606000423 0.975999951 0.378600001 
-0.0606000423 0.988200009 0.366400003 
-0.0606000423 0.988200009 0.378600001 
-0.0728000402 0.975999951 0.390799999 
-0.0728000402 0.975999951 0.402999997 
-0.0728000402 0.988200009 0.390799999 
-0.0728000402 0.988200009 0.402999997 
-0.0606000423 0.975999951 0.390799999 
-0.0606000423 0.975999951 0.402999997 
-0.0606000423 0.988200009 0.390799999 
-0.0606000423 0.988200009 0.402999997 
-0.0728000402 0.975999951 0.415199995 
-0.0606000423 0.975999951 0.415199995 
-0.0606000423 0.988200009 0.415199995 
-0.0728000402 1.00039995 0.366400003 
-0.0728000402 1.00039995 0.378600001 
-0.0728000402 1.01259995 0.366400003 
-0.0728000402 1.01259995 0.378600001 
-0.0606000423 1.00039995 0.366400003 
-0.0606000423 1.00039995 0.378600001 
-0.0606000423 1.01259995 0.366400003 
-0.0606000423 1.01259995 0.378600001 
-0.0728000402 1.00039995 0.390799999 
-0.0606000423 1.00039995 0.390799999 
-0.0606000423 1.00039995 0.402999997 
-0.0606000423 1.01259995 0.390799999 
-0.0728000402 1.02479994 0.366400003 
-0.0606000423 1.02479994 0.366400003 
-0.0484000444 0.975999951 0.366400003 
-0.0484000444 0.975999951 0.378600001 
-0.0484000444 0.988200009 0.366400003 
-0.0484000444 0.988200009 0.378600001 
-0.0362000465 0.975999951 0.366400003 
-0.0362000465 0.975999951 0.378600001 
-0.0362000465 0.988200009 0.366400003 
-0.0362000465 0.988200009 0.378600001 
-0.0484000444 0.975999951 0.390799999 
-0.0484000444 0.975999951 0.402999997 
-0.0484000444 0.988200009 0.390799999 
-0.0484000444 0.988200009 0.402999997 
-0.0362000465 0.975999951 0.390799999 
-0.0362000465 0.975999951 0.402999997 
-0.0362000465 0.988200009 0.390799999 
-0.0362000465 0.988200009 0.402999997 
-0.0484000444 0.975999951 0.415199995 
-0.0484000444 0.975999951 0.427399993 
-0.0484000444 0.988200009 0.415199995 
-0.0362000465 0.975999951 0.415199995 
-0.0362000465 0.975999951 0.427399993 
-0.0362000465 0.988200009 0.415199995 
-0.0484000444 1.00039995 0.366400003 
-0.0484000444 1.00039995 0.378600001 
-0.0484000444 1.01259995 0.366400003 
-0.0484000444 1.01259995 0.378600001 
-0.0362000465 1.00039995 0.366400003 
-0.0362000465 1.00039995 0.378600001 
-0.0362000465 1.01259995 0.366400003 
-0.0362000465 1.01259995 0.378600001 
-0.0484000444 1.00039995 0.390799999 
-0.0484000444 1.00039995 0.402999997 
-0.0484000444 1.01259995 0.390799999 
-0.0362000465 1.00039995 0.390799999 
-0.0362000465 1.00039995 0.402999997 
-0.0362000465 1.01259995 0.390799999 
-0.0484000444 1.02479994 0.366400003 
-0.0484000444 1.02479994 0.378600001 
-0.0362000465 1.02479994 0.366400003 
-0.0362000465 1.02479994 0.378600001 
-0.0362000465 1.03699994 0.366400003 
-0.158200026 1.17120004 -0.438800037 
-0.158200026 1.17120004 -0.426600039 
-0.158200026 1.18340003 -0.426600039 
-0.146000028 1.17120004 -0.451000035 
-0.13380003 1.17120004 -0.451000035 
-0.146000028 1.17120004 -0.438800037 
-0.146000028 1.17120004 -0.426600039 
-0.146000028 1.18340003 -0.438800037 
-0.146000028 1.18340003 -0.426600039 
-0.13380003 1.17120004 -0.438800037 
-0.13380003 1.17120004 -0.426600039 
-0.13380003 1.18340003 -0.438800037 
-0.13380003 1.18340003 -0.426600039 
-0.146000028 1.19560003 -0.426600039 
-0.13380003 1.19560003 -0.438800037 
-0.13380003 1.19560003 -0.426600039 
-0.13380003 1.20780003 -0.426600039 
-0.121600032 1.17120004 -0.463200033 
-0.121600032 1.17120004 -0.451000035 
-0.121600032 1.18340003 -0.451000035 
-0.109400034 1.17120004 -0.463200033 
-0.109400034 1.17120004 -0.451000035 
-0.109400034 1.18340003 -0.451000035 
-0.121600032 1.17120004 -0.438800037 
-0.121600032 1.17120004 -0.426600039 
-0.121600032 1.18340003 -0.438800037 
-0.121600032 1.18340003 -0.426600039 
-0.109400034 1.17120004 -0.438800037 
-0.109400034 1.17120004 -0.426600039 
-0.109400034 1.18340003 -0.438800037 
-0.109400034 1.18340003 -0.426600039 
-0.109400034 1.19560003 -0.451000035 
-0.121600032 1.19560003 -0.438800037 
-0.121600032 1.19560003 -0.426600039 
-0.121600032 1.20780003 -0.426600039 
-0.109400034 1.19560003 -0.438800037 
-0.109400034 1.19560003 -0.426600039 
-0.109400034 1.20780003 -0.438800037 
-0.109400034 1.20780003 -0.426600039 
-0.121600032 1.22000003 -0.426600039 
-0.109400034 1.22000003 -0.426600039 
-0.109400034 1.23220003 -0.426600039 
-0.097200036 1.17120004 -0.463200033 
-0.097200036 1.17120004 -0.451000035 
-0.097200036 1.18340003 -0.451000035 
-0.0850000381 1.17120004 -0.463200033 
-0.0850000381 1.17120004 -0.451000035 
-0.0850000381 1.18340003 -0.463200033 
-0.0850000381 1.18340003 -0.451000035 
-0.097200036 1.17120004 -0.438800037 
-0.097200036 1.17120004 -0.426600039 
-0.097200036 1.18340003 -0.438800037 
-0.097200036 1.18340003 -0.426600039 
-0.0850000381 1.17120004 -0.438800037 
-0.0850000381 1.17120004 -0.426600039 
-0.0850000381 1.18340003 -0.438800037 
-0.0850000381 1.18340003 -0.426600039 
-0.097200036 1.19560003 -0.451000035 
-0.0850000381 1.19560003 -0.451000035 
-0.097200036 1.19560003 -0.438800037 
-0.097200036 1.19560003 -0.426600039 
-0.097200036 1.20780003 -0.438800037 
-0.097200036 1.20780003 -0.426600039 
-0.0850000381 1.19560003 -0.438800037 
-0.0850000381 1.19560003 -0.426600039 
-0.0850000381 1.20780003 -0.438800037 
-0.0850000381 1.20780003 -0.426600039 
-0.097200036 1.22000003 -0.426600039 
-0.097200036 1.23220003 -0.426600039 
-0.0850000381 1.22000003 -0.438800037 
-0.0850000381 1.22000003 -0.426600039 
-0.0850000381 1.23220003 -0.426600039 
-0.0850000381 1.24440002 -0.426600039 
-0.0728000402 1.17120004 -0.475400031 
-0.0606000423 1.17120004 -0.475400031 
-0.0728000402 1.17120004 -0.463200033 
-0.0728000402 1.17120004 -0.451000035 
-0.0728000402 1.18340003 -0.463200033 
-0.0728000402 1.18340003 -0.451000035 
-0.0606000423 1.17120004 -0.463200033 
-0.0606000423 1.17120004 -0.451000035 
-0.0606000423 1.18340003 -0.463200033 
-0.0606000423 1.18340003 -0.451000035 
-0.0728000402 1.17120004 -0.438800037 
-0.0728000402 1.17120004 -0.426600039 
-0.0728000402 1.18340003 -0.438800037 
-0.0728000402 1.18340003 -0.426600039 
-0.0606000423 1.17120004 -0.438800037 
-0.0606000423 1.17120004 -0.426600039 
-0.0606000423 1.18340003 -0.438800037 
-0.0606000423 1.18340003 -0.426600039 
-0.0728000402 1.19560003 -0.451000035 
-0.0606000423 1.19560003 -0.451000035 
-0.0728000402 1.19560003 -0.438800037 
-0.0728000402 1.19560003 -0.426600039 
-0.0728000402 1.20780003 -0.438800037 
-0.0728000402 1.20780003 -0.426600039 
-0.0606000423 1.19560003 -0.438800037 
-0.0606000423 1.19560003 -0.426600039 
-0.0606000423 1.20780003 -0.438800037 
-0.0606000423 1.20780003 -0.426600039 
-0.0728000402 1.22000003 -0.438800037 
-0.0728000402 1.22000003 -0.426600039 
-0.0728000402 1.23220003 -0.426600039 
-0.0606000423 1.22000003 -0.438800037 
-0.0606000423 1.22000003 -0.426600039 
-0.0606000423 1.23220003 -0.426600039 
-0.0728000402 1.24440002 -0.426600039 
-0.0606000423 1.24440002 -0.426600039 
-0.0484000444 1.17120004 -0.475400031 
-0.0362000465 1.17120004 -0.475400031 
-0.0484000444 1.17120004 -0.463200033 
-0.0484000444 1.17120004 -0.451000035 
-0.0484000444 1.18340003 -0.463200033 
-0.0484000444 1.18340003 -0.451000035 
-0.0362000465 1.17120004 -0.463200033 
-0.0362000465 1.17120004 -0.451000035 
-0.0362000465 1.18340003 -0.463200033 
-0.0362000465 1.18340003 -0.451000035 
-0.0484000444 1.17120004 -0.438800037 
-0.0484000444 1.17120004 -0.426600039 
-0.0484000444 1.18340003 -0.438800037 
-0.0484000444 1.18340003 -0.426600039 
-0.0362000465 1.17120004 -0.438800037 
-0.0362000465 1.17120004 -0.426600039 
-0.0362000465 1.18340003 -0.438800037 
-0.0362000465 1.18340003 -0.426600039 
-0.0484000444 1.19560003 -0.451000035 
-0.0484000444 1.20780003 -0.451000035 
-0.0362000465 1.19560003 -0.451000035 
-0.0362000465 1.20780003 -0.451000035 
-0.0484000444 1.19560003 -0.438800037 
-0.0484000444 1.19560003 -0.426600039 
-0.0484000444 1.20780003 -0.438800037 
-0.0484000444 1.20780003 -0.426600039 
-0.0362000465 1.19560003 -0.438800037 
-0.0362000465 1.19560003 -0.426600039 
-0.0362000465 1.20780003 -0.438800037 
-0.0362000465 1.20780003 -0.426600039 
-0.0484000444 1.22000003 -0.438800037 
-0.0484000444 1.22000003 -0.426600039 
-0.0484000444 1.23220003 -0.426600039 
-0.0362000465 1.22000003 -0.438800037 
-0.0362000465 1.22000003 -0.426600039 
-0.0362000465 1.23220003 -0.426600039 
-0.0484000444 1.24440002 -0.426600039 
-0.0362000465 1.24440002 -0.426600039 
-0.0362000465 1.25660002 -0.426600039 
-0.207000017 1.30540001 -0.280200005 
-0.219200015 1.30540001 -0.268000007 
-0.219200015 1.30540001 -0.255800009 
-0.207000017 1.29320002 -0.255800009 
-0.207000017 1.30540001 -0.268000007 
-0.207000017 1.30540001 -0.255800009 
-0.219200015 1.29320002 -0.243600011 
-0.219200015 1.29320002 -0.231400013 
-0.219200015 1.30540001 -0.243600011 
-0.219200015 1.30540001 -0.231400013 
-0.207000017 1.29320002 -0.243600011 
-0.207000017 1.29320002 -0.231400013 
-0.207000017 1.30540001 -0.243600011 
-0.207000017 1.30540001 -0.231400013 
-0.219200015 1.31760001 -0.280200005 
-0.219200015 1.32980001 -0.292400002 
-0.219200015 1.32980001 -0.280200005 
-0.207000017 1.31760001 -0.292400002 
-0.207000017 1.31760001 -0.280200005 
-0.207000017 1.32980001 -0.292400002 
-0.207000017 1.32980001 -0.280200005 
-0.219200015 1.31760001 -0.268000007 
-0.219200015 1.31760001 -0.255800009 
-0.219200015 1.32980001 -0.268000007 
-0.219200015 1.32980001 -0.255800009 
-0.207000017 1.31760001 -0.268000007 
-0.207000017 1.31760001 -0.255800009 
-0.207000017 1.32980001 -0.268000007 
-0.207000017 1.32980001 -0.255800009 
-0.219200015 1.31760001 -0.243600011 
-0.219200015 1.31760001 -0.231400013 
-0.219200015 1.32980001 -0.243600011 
-0.219200015 1.32980001 -0.231400013 
-0.207000017 1.31760001 -0.243600011 
-0.207000017 1.31760001 -0.231400013 
-0.207000017 1.32980001 -0.243600011 
-0.207000017 1.32980001 -0.231400013 
-0.219200015 1.34200001 -0.292400002 
-0.219200015 1.34200001 -0.280200005 
-0.219200015 1.35420001 -0.292400002 
-0.219200015 1.35420001 -0.280200005 
-0.207000017 1.34200001 -0.292400002 
-0.207000017 1.34200001 -0.280200005 
-0.207000017 1.35420001 -0.292400002 
-0.207000017 1.35420001 -0.280200005 
-0.219200015 1.34200001 -0.268000007 
-0.219200015 1.34200001 -0.255800009 
-0.219200015 1.35420001 -0.268000007 
-0.219200015 1.35420001 -0.255800009 
-0.207000017 1.34200001 -0.268000007 
-0.207000017 1.34200001 -0.255800009 
-0.207000017 1.35420001 -0.268000007 
-0.207000017 1.35420001 -0.255800009 
-0.219200015 1.34200001 -0.243600011 
-0.219200015 1.34200001 -0.231400013 
-0.219200015 1.35420001 -0.243600011 
-0.219200015 1.35420001 -0.231400013 
-0.207000017 1.34200001 -0.243600011 
-0.207000017 1.34200001 -0.231400013 
-0.207000017 1.35420001 -0.243600011 
-0.207000017 1.35420001 -0.231400013 
-0.182600021 1.17120004 -0.36559999 
-0.182600021 1.17120004 -0.353399992 
-0.182600021 1.17120004 -0.341199994 
-0.182600021 1.17120004 -0.328999996 
-0.182600021 1.17120004 -0.316799998 
-0.182600021 1.17120004 -0.3046 
-0.194800019 1.28100002 -0.243600011 
-0.194800019 1.28100002 -0.231400013 
-0.182600021 1.28100002 -0.243600011 
-0.182600021 1.28100002 -0.231400013 
-0.194800019 1.30540001 -0.280200005 
-0.182600021 1.30540001 -0.280200005 
-0.194800019 1.29320002 -0.268000007 
-0.194800019 1.29320002 -0.255800009 
-0.194800019 1.30540001 -0.268000007 
-0.194800019 1.30540001 -0.255800009 
-0.182600021 1.29320002 -0.268000007 
-0.182600021 1.29320002 -0.255800009 
-0.182600021 1.30540001 -0.268000007 
-0.182600021 1.30540001 -0.255800009 
-0.194800019 1.29320002 -0.243600011 
-0.194800019 1.29320002 -0.231400013 
-0.194800019 1.30540001 -0.243600011 
-0.194800019 1.30540001 -0.231400013 
-0.182600021 1.29320002 -0.243600011 
-0.182600021 1.29320002 -0.231400013 
-0.182600021 1.30540001 -0.243600011 
-0.182600021 1.30540001 -0.231400013 
-0.182600021 1.32980001 -0.3046 
-0.194800019 1.31760001 -0.292400002 
-0.194800019 1.31760001 -0.280200005 
-0.194800019 1.32980001 -0.292400002 
-0.194800019 1.32980001 -0.280200005 
-0.182600021 1.31760001 -0.292400002 
-0.182600021 1.31760001 -0.280200005 
-0.182600021 1.32980001 -0.292400002 
-0.182600021 1.32980001 -0.280200005 
-0.194800019 1.31760001 -0.268000007 
-0.194800019 1.31760001 -0.255800009 
-0.194800019 1.32980001 -0.268000007 
-0.194800019 1.32980001 -0.255800009 
-0.182600021 1.31760001 -0.268000007 
-0.182600021 1.31760001 -0.255800009 
-0.182600021 1.32980001 -0.268000007 
-0.182600021 1.32980001 -0.255800009 
-0.194800019 1.31760001 -0.243600011 
-0.194800019 1.31760001 -0.231400013 
-0.194800019 1.32980001 -0.243600011 
-0.194800019 1.32980001 -0.231400013 
-0.182600021 1.31760001 -0.243600011 
-0.182600021 1.31760001 -0.231400013 
-0.182600021 1.32980001 -0.243600011 
-0.182600021 1.32980001 -0.231400013 
-0.182600021 1.34200001 -0.3046 
-0.194800019 1.34200001 -0.292400002 
-0.194800019 1.34200001 -0.280200005 
-0.194800019 1.35420001 -0.292400002 
-0.194800019 1.35420001 -0.280200005 
-0.182600021 1.34200001 -0.292400002 
-0.182600021 1.34200001 -0.280200005 
-0.182600021 1.35420001 -0.292400002 
-0.182600021 1.35420001 -0.280200005 
-0.194800019 1.34200001 -0.268000007 
-0.194800019 1.34200001 -0.255800009 
-0.194800019 1.35420001 -0.268000007 
-0.194800019 1.35420001 -0.255800009 
-0.182600021 1.34200001 -0.268000007 
-0.182600021 1.34200001 -0.255800009 
-0.182600021 1.35420001 -0.268000007 
-0.182600021 1.35420001 -0.255800009 
-0.194800019 1.34200001 -0.243600011 
-0.194800019 1.34200001 -0.231400013 
-0.194800019 1.35420001 -0.243600011 
-0.194800019 1.35420001 -0.231400013 
-0.182600021 1.34200001 -0.243600011 
-0.182600021 1.34200001 -0.231400013 
-0.182600021 1.35420001 -0.243600011 
-0.182600021 1.35420001 -0.231400013 
-0.170400023 1.17120004 -0.414399981 
-0.170400023 1.17120004 -0.402199984 
-0.170400023 1.18340003 -0.402199984 
-0.158200026 1.17120004 -0.414399981 
-0.158200026 1.17120004 -0.402199984 
-0.158200026 1.18340003 -0.414399981 
-0.158200026 1.18340003 -0.402199984 
-0.170400023 1.17120004 -0.389999986 
-0.170400023 1.17120004 -0.377799988 
-0.170400023 1.18340003 -0.389999986 
-0.170400023 1.18340003 -0.377799988 
-0.158200026 1.17120004 -0.389999986 
-0.158200026 1.17120004 -0.377799988 
-0.158200026 1.18340003 -0.389999986 
-0.158200026 1.18340003 -0.377799988 
-0.170400023 1.17120004 -0.36559999 
-0.170400023 1.17120004 -0.353399992 
-0.170400023 1.18340003 -0.36559999 
-0.170400023 1.18340003 -0.353399992 
-0.158200026 1.17120004 -0.36559999 
-0.158200026 1.17120004 -0.353399992 
-0.158200026 1.18340003 -0.36559999 
-0.158200026 1.18340003 -0.353399992 
-0.170400023 1.17120004 -0.341199994 
-0.170400023 1.17120004 -0.328999996 
-0.170400023 1.18340003 -0.341199994 
-0.170400023 1.18340003 -0.328999996 
-0.158200026 1.17120004 -0.341199994 
-0.158200026 1.17120004 -0.328999996 
-0.158200026 1.18340003 -0.341199994 
-0.158200026 1.18340003 -0.328999996 
-0.170400023 1.17120004 -0.316799998 
-0.170400023 1.17120004 -0.3046 
-0.170400023 1.18340003 -0.316799998 
-0.170400023 1.18340003 -0.3046 
-0.158200026 1.17120004 -0.316799998 
-0.158200026 1.17120004 -0.3046 
-0.158200026 1.18340003 -0.316799998 
-0.158200026 1.18340003 -0.3046 
-0.170400023 1.17120004 -0.292400002 
-0.170400023 1.17120004 -0.280200005 
-0.170400023 1.18340003 -0.292400002 
-0.170400023 1.18340003 -0.280200005 
-0.158200026 1.17120004 -0.292400002 
-0.158200026 1.17120004 -0.280200005 
-0.158200026 1.18340003 -0.292400002 
-0.158200026 1.18340003 -0.280200005 
-0.170400023 1.17120004 -0.268000007 
-0.170400023 1.17120004 -0.255800009 
-0.170400023 1.18340003 -0.268000007 
-0.170400023 1.18340003 -0.255800009 
-0.158200026 1.17120004 -0.268000007 
-0.158200026 1.17120004 -0.255800009 
-0.158200026 1.18340003 -0.268000007 
-0.158200026 1.18340003 -0.255800009 
-0.170400023 1.17120004 -0.243600011 
-0.170400023 1.17120004 -0.231400013 
-0.170400023 1.18340003 -0.243600011 
-0.158200026 1.17120004 -0.243600011 
-0.158200026 1.17120004 -0.231400013 
-0.158200026 1.18340003 -0.243600011 
-0.158200026 1.18340003 -0.231400013 
-0.158200026 1.19560003 -0.414399981 
-0.158200026 1.19560003 -0.402199984 
-0.158200026 1.20780003 -0.402199984 
-0.170400023 1.19560003 -0.377799988 
-0.158200026 1.19560003 -0.389999986 
-0.158200026 1.19560003 -0.377799988 
-0.158200026 1.20780003 -0.389999986 
-0.158200026 1.20780003 -0.377799988 
-0.170400023 1.19560003 -0.36559999 
-0.170400023 1.19560003 -0.353399992 
-0.170400023 1.20780003 -0.36559999 
-0.170400023 1.20780003 -0.353399992 
-0.158200026 1.19560003 -0.36559999 
-0.158200026 1.19560003 -0.353399992 
-0.158200026 1.20780003 -0.36559999 
-0.158200026 1.20780003 -0.353399992 
-0.170400023 1.19560003 -0.341199994 
-0.170400023 1.19560003 -0.328999996 
-0.170400023 1.20780003 -0.341199994 
-0.170400023 1.20780003 -0.328999996 
-0.158200026 1.19560003 -0.341199994 
-0.158200026 1.19560003 -0.328999996 
-0.158200026 1.20780003 -0.341199994 
-0.158200026 1.20780003 -0.328999996 
-0.170400023 1.19560003 -0.316799998 
-0.170400023 1.19560003 -0.3046 
-0.170400023 1.20780003 -0.316799998 
-0.170400023 1.20780003 -0.3046 
-0.158200026 1.19560003 -0.316799998 
-0.158200026 1.19560003 -0.3046 
-0.158200026 1.20780003 -0.316799998 
-0.158200026 1.20780003 -0.3046 
-0.170400023 1.19560003 -0.292400002 
-0.170400023 1.19560003 -0.280200005 
-0.170400023 1.20780003 -0.292400002 
-0.170400023 1.20780003 -0.280200005 
-0.158200026 1.19560003 -0.292400002 
-0.158200026 1.19560003 -0.280200005 
-0.158200026 1.20780003 -0.292400002 
-0.158200026 1.20780003 -0.280200005 
-0.170400023 1.19560003 -0.268000007 
-0.170400023 1.19560003 -0.255800009 
-0.170400023 1.20780003 -0.268000007 
-0.158200026 1.19560003 -0.268000007 
-0.158200026 1.19560003 -0.255800009 
-0.158200026 1.20780003 -0.268000007 
-0.158200026 1.20780003 -0.255800009 
-0.170400023 1.19560003 -0.243600011 
-0.158200026 1.19560003 -0.243600011 
-0.158200026 1.19560003 -0.231400013 
-0.158200026 1.20780003 -0.243600011 
-0.158200026 1.20780003 -0.231400013 
-0.158200026 1.22000003 -0.389999986 
-0.158200026 1.22000003 -0.377799988 
-0.158200026 1.23220003 -0.377799988 
-0.158200026 1.22000003 -0.36559999 
-0.158200026 1.22000003 -0.353399992 
-0.158200026 1.23220003 -0.36559999 
-0.158200026 1.23220003 -0.353399992 
-0.170400023 1.22000003 -0.328999996 
-0.158200026 1.22000003 -0.341199994 
-0.158200026 1.22000003 -0.328999996 
-0.158200026 1.23220003 -0.341199994 
-0.158200026 1.23220003 -0.328999996 
-0.170400023 1.22000003 -0.316799998 
-0.170400023 1.22000003 -0.3046 
-0.158200026 1.22000003 -0.316799998 
-0.158200026 1.22000003 -0.3046 
-0.158200026 1.23220003 -0.316799998 
-0.158200026 1.23220003 -0.3046 
-0.170400023 1.22000003 -0.292400002 
-0.158200026 1.22000003 -0.292400002 
-0.158200026 1.22000003 -0.280200005 
-0.158200026 1.23220003 -0.292400002 
-0.158200026 1.23220003 -0.280200005 
-0.158200026 1.22000003 -0.268000007 
-0.158200026 1.22000003 -0.255800009 
-0.158200026 1.23220003 -0.268000007 
-0.158200026 1.23220003 -0.255800009 
-0.158200026 1.22000003 -0.243600011 
-0.158200026 1.22000003 -0.231400013 
-0.158200026 1.23220003 -0.243600011 
-0.158200026 1.23220003 -0.231400013 
-0.158200026 1.24440002 -0.36559999 
-0.158200026 1.24440002 -0.353399992 
-0.158200026 1.25660002 -0.353399992 
-0.158200026 1.24440002 -0.341199994 
-0.158200026 1.24440002 -0.328999996 
-0.158200026 1.25660002 -0.341199994 
-0.158200026 1.25660002 -0.328999996 
-0.158200026 1.24440002 -0.316799998 
-0.158200026 1.24440002 -0.3046 
-0.158200026 1.25660002 -0.316799998 
-0.158200026 1.25660002 -0.3046 
-0.158200026 1.24440002 -0.292400002 
-0.158200026 1.24440002 -0.280200005 
-0.158200026 1.25660002 -0.292400002 
-0.158200026 1.25660002 -0.280200005 
-0.158200026 1.24440002 -0.268000007 
-0.158200026 1.24440002 -0.255800009 
-0.158200026 1.25660002 -0.268000007 
-0.158200026 1.25660002 -0.255800009 
-0.158200026 1.24440002 -0.243600011 
-0.158200026 1.24440002 -0.231400013 
-0.158200026 1.25660002 -0.243600011 
-0.158200026 1.25660002 -0.231400013 
-0.158200026 1.26880002 -0.341199994 
-0.158200026 1.26880002 -0.328999996 
-0.158200026 1.26880002 -0.316799998 
-0.158200026 1.26880002 -0.3046 
-0.158200026 1.28100002 -0.316799998 
-0.158200026 1.28100002 -0.3046 
-0.158200026 1.26880002 -0.292400002 
-0.158200026 1.26880002 -0.280200005 
-0.158200026 1.28100002 -0.292400002 
-0.158200026 1.28100002 -0.280200005 
-0.170400023 1.28100002 -0.268000007 
-0.170400023 1.28100002 -0.255800009 
-0.158200026 1.26880002 -0.268000007 
-0.158200026 1.26880002 -0.255800009 
-0.158200026 1.28100002 -0.268000007 
-0.158200026 1.28100002 -0.255800009 
-0.170400023 1.26880002 -0.243600011 
-0.170400023 1.26880002 -0.231400013 
-0.170400023 1.28100002 -0.243600011 
-0.170400023 1.28100002 -0.231400013 
-0.158200026 1.26880002 -0.243600011 
-0.158200026 1.26880002 -0.231400013 
-0.158200026 1.28100002 -0.243600011 
-0.158200026 1.28100002 -0.231400013 
-0.158200026 1.29320002 -0.3046 
-0.158200026 1.30540001 -0.316799998 
-0.158200026 1.30540001 -0.3046 
-0.170400023 1.29320002 -0.280200005 
-0.170400023 1.30540001 -0.292400002 
-0.170400023 1.30540001 -0.280200005 
-0.158200026 1.29320002 -0.292400002 
-0.158200026 1.29320002 -0.280200005 
-0.158200026 1.30540001 -0.292400002 
-0.158200026 1.30540001 -0.280200005 
-0.170400023 1.29320002 -0.268000007 
-0.170400023 1.29320002 -0.255800009 
-0.170400023 1.30540001 -0.268000007 
-0.170400023 1.30540001 -0.255800009 
-0.158200026 1.29320002 -0.268000007 
-0.158200026 1.29320002 -0.255800009 
-0.158200026 1.30540001 -0.268000007 
-0.158200026 1.30540001 -0.255800009 
-0.170400023 1.29320002 -0.243600011 
-0.170400023 1.29320002 -0.231400013 
-0.170400023 1.30540001 -0.243600011 
-0.170400023 1.30540001 -0.231400013 
-0.158200026 1.29320002 -0.243600011 
-0.158200026 1.29320002 -0.231400013 
-0.158200026 1.30540001 -0.243600011 
-0.158200026 1.30540001 -0.231400013 
-0.170400023 1.31760001 -0.3046 
-0.170400023 1.32980001 -0.3046 
-0.158200026 1.31760001 -0.316799998 
-0.158200026 1.31760001 -0.3046 
-0.158200026 1.32980001 -0.316799998 
-0.158200026 1.32980001 -0.3046 
-0.170400023 1.31760001 -0.292400002 
-0.170400023 1.31760001 -0.280200005 
-0.170400023 1.32980001 -0.292400002 
-0.170400023 1.32980001 -0.280200005 
-0.158200026 1.31760001 -0.292400002 
-0.158200026 1.31760001 -0.280200005 
-0.158200026 1.32980001 -0.292400002 
-0.158200026 1.32980001 -0.280200005 
-0.170400023 1.31760001 -0.268000007 
-0.170400023 1.31760001 -0.255800009 
-0.170400023 1.32980001 -0.268000007 
-0.170400023 1.32980001 -0.255800009 
-0.158200026 1.31760001 -0.268000007 
-0.158200026 1.31760001 -0.255800009 
-0.158200026 1.32980001 -0.268000007 
-0.158200026 1.32980001 -0.255800009 
-0.170400023 1.31760001 -0.243600011 
-0.170400023 1.31760001 -0.231400013 
-0.170400023 1.32980001 -0.243600011 
-0.170400023 1.32980001 -0.231400013 
-0.158200026 1.31760001 -0.243600011 
-0.158200026 1.31760001 -0.231400013 
-0.158200026 1.32980001 -0.243600011 
-0.158200026 1.32980001 -0.231400013 
-0.170400023 1.34200001 -0.3046 
-0.158200026 1.34200001 -0.3046 
-0.170400023 1.34200001 -0.292400002 
-0.170400023 1.34200001 -0.280200005 
-0.170400023 1.35420001 -0.292400002 
-0.170400023 1.35420001 -0.280200005 
-0.158200026 1.34200001 -0.292400002 
-0.158200026 1.34200001 -0.280200005 
-0.158200026 1.35420001 -0.292400002 
-0.158200026 1.35420001 -0.280200005 
-0.170400023 1.34200001 -0.268000007 
-0.170400023 1.34200001 -0.255800009 
-0.170400023 1.35420001 -0.268000007 
-0.170400023 1.35420001 -0.255800009 
-0.158200026 1.34200001 -0.268000007 
-0.158200026 1.34200001 -0.255800009 
-0.158200026 1.35420001 -0.268000007 
-0.158200026 1.35420001 -0.255800009 
-0.170400023 1.34200001 -0.243600011 
-0.170400023 1.34200001 -0.231400013 
-0.170400023 1.35420001 -0.243600011 
-0.170400023 1.35420001 -0.231400013 
-0.158200026 1.34200001 -0.243600011 
-0.158200026 1.34200001 -0.231400013 
-0.158200026 1.35420001 -0.243600011 
-0.158200026 1.35420001 -0.231400013 
-0.146000028 1.17120004 -0.414399981 
-0.146000028 1.17120004 -0.402199984 
-0.146000028 1.18340003 -0.414399981 
-0.146000028 1.18340003 -0.402199984 
-0.13380003 1.17120004 -0.414399981 
-0.13380003 1.17120004 -0.402199984 
-0.13380003 1.18340003 -0.414399981 
-0.13380003 1.18340003 -0.402199984 
-0.146000028 1.17120004 -0.389999986 
-0.146000028 1.17120004 -0.377799988 
-0.146000028 1.18340003 -0.389999986 
-0.146000028 1.18340003 -0.377799988 
-0.13380003 1.17120004 -0.389999986 
-0.13380003 1.17120004 -0.377799988 
-0.13380003 1.18340003 -0.389999986 
-0.13380003 1.18340003 -0.377799988 
-0.146000028 1.17120004 -0.36559999 
-0.146000028 1.17120004 -0.353399992 
-0.146000028 1.18340003 -0.36559999 
-0.146000028 1.18340003 -0.353399992 
-0.13380003 1.17120004 -0.36559999 
-0.13380003 1.17120004 -0.353399992 
-0.13380003 1.18340003 -0.36559999 
-0.13380003 1.18340003 -0.353399992 
-0.146000028 1.17120004 -0.341199994 
-0.146000028 1.17120004 -0.328999996 
-0.146000028 1.18340003 -0.341199994 
-0.146000028 1.18340003 -0.328999996 
-0.13380003 1.17120004 -0.341199994 
-0.13380003 1.17120004 -0.328999996 
-0.13380003 1.18340003 -0.341199994 
-0.13380003 1.18340003 -0.328999996 
-0.146000028 1.17120004 -0.316799998 
-0.146000028 1.17120004 -0.3046 
-0.146000028 1.18340003 -0.316799998 
-0.146000028 1.18340003 -0.3046 
-0.13380003 1.17120004 -0.316799998 
-0.13380003 1.17120004 -0.3046 
-0.13380003 1.18340003 -0.316799998 
-0.13380003 1.18340003 -0.3046 
-0.146000028 1.17120004 -0.292400002 
-0.146000028 1.17120004 -0.280200005 
-0.146000028 1.18340003 -0.292400002 
-0.146000028 1.18340003 -0.280200005 
-0.13380003 1.17120004 -0.292400002 
-0.13380003 1.17120004 -0.280200005 
-0.13380003 1.18340003 -0.292400002 
-0.13380003 1.18340003 -0.280200005 
-0.146000028 1.17120004 -0.268000007 
-0.146000028 1.17120004 -0.255800009 
-0.146000028 1.18340003 -0.268000007 
-0.146000028 1.18340003 -0.255800009 
-0.13380003 1.17120004 -0.268000007 
-0.13380003 1.17120004 -0.255800009 
-0.13380003 1.18340003 -0.268000007 
-0.13380003 1.18340003 -0.255800009 
-0.146000028 1.17120004 -0.243600011 
-0.146000028 1.17120004 -0.231400013 
-0.146000028 1.18340003 -0.243600011 
-0.146000028 1.18340003 -0.231400013 
-0.13380003 1.17120004 -0.243600011 
-0.13380003 1.17120004 -0.231400013 
-0.13380003 1.18340003 -0.243600011 
-0.13380003 1.18340003 -0.231400013 
-0.146000028 1.19560003 -0.414399981 
-0.146000028 1.19560003 -0.402199984 
-0.146000028 1.20780003 -0.414399981 
-0.146000028 1.20780003 -0.402199984 
-0.13380003 1.19560003 -0.414399981 
-0.13380003 1.19560003 -0.402199984 
-0.13380003 1.20780003 -0.414399981 
-0.13380003 1.20780003 -0.402199984 
-0.146000028 1.19560003 -0.389999986 
-0.146000028 1.19560003 -0.377799988 
-0.146000028 1.20780003 -0.389999986 
-0.146000028 1.20780003 -0.377799988 
-0.13380003 1.19560003 -0.389999986 
-0.13380003 1.19560003 -0.377799988 
-0.13380003 1.20780003 -0.389999986 
-0.13380003 1.20780003 -0.377799988 
-0.146000028 1.19560003 -0.36559999 
-0.146000028 1.19560003 -0.353399992 
-0.146000028 1.20780003 -0.36559999 
-0.146000028 1.20780003 -0.353399992 
-0.13380003 1.19560003 -0.36559999 
-0.13380003 1.19560003 -0.353399992 
-0.13380003 1.20780003 -0.36559999 
-0.13380003 1.20780003 -0.353399992 
-0.146000028 1.19560003 -0.341199994 
-0.146000028 1.19560003 -0.328999996 
-0.146000028 1.20780003 -0.341199994 
-0.146000028 1.20780003 -0.328999996 
-0.13380003 1.19560003 -0.341199994 
-0.13380003 1.19560003 -0.328999996 
-0.13380003 1.20780003 -0.341199994 
-0.13380003 1.20780003 -0.328999996 
-0.146000028 1.19560003 -0.316799998 
-0.146000028 1.19560003 -0.3046 
-0.146000028 1.20780003 -0.316799998 
-0.146000028 1.20780003 -0.3046 
-0.13380003 1.19560003 -0.316799998 
-0.13380003 1.19560003 -0.3046 
-0.13380003 1.20780003 -0.316799998 
-0.13380003 1.20780003 -0.3046 
-0.146000028 1.19560003 -0.292400002 
-0.146000028 1.19560003 -0.280200005 
-0.146000028 1.20780003 -0.292400002 
-0.146000028 1.20780003 -0.280200005 
-0.13380003 1.19560003 -0.292400002 
-0.13380003 1.19560003 -0.280200005 
-0.13380003 1.20780003 -0.292400002 
-0.13380003 1.20780003 -0.280200005 
-0.146000028 1.19560003 -0.268000007 
-0.146000028 1.19560003 -0.255800009 
-0.146000028 1.20780003 -0.268000007 
-0.146000028 1.20780003 -0.255800009 
-0.13380003 1.19560003 -0.268000007 
-0.13380003 1.19560003 -0.255800009 
-0.13380003 1.20780003 -0.268000007 
-0.13380003 1.20780003 -0.255800009 
-0.146000028 1.19560003 -0.243600011 
-0.146000028 1.19560003 -0.231400013 
-0.146000028 1.20780003 -0.243600011 
-0.146000028 1.20780003 -0.231400013 
-0.13380003 1.19560003 -0.243600011 
-0.13380003 1.19560003 -0.231400013 
-0.13380003 1.20780003 -0.243600011 
-0.13380003 1.20780003 -0.231400013 
-0.146000028 1.22000003 -0.414399981 
-0.146000028 1.22000003 -0.402199984 
-0.146000028 1.23220003 -0.402199984 
-0.13380003 1.22000003 -0.414399981 
-0.13380003 1.22000003 -0.402199984 
-0.13380003 1.23220003 -0.414399981 
-0.13380003 1.23220003 -0.402199984 
-0.146000028 1.22000003 -0.389999986 
-0.146000028 1.22000003 -0.377799988 
-0.146000028 1.23220003 -0.389999986 
-0.146000028 1.23220003 -0.377799988 
-0.13380003 1.22000003 -0.389999986 
-0.13380003 1.22000003 -0.377799988 
-0.13380003 1.23220003 -0.389999986 
-0.13380003 1.23220003 -0.377799988 
-0.146000028 1.22000003 -0.36559999 
-0.146000028 1.22000003 -0.353399992 
-0.146000028 1.23220003 -0.36559999 
-0.146000028 1.23220003 -0.353399992 
-0.13380003 1.22000003 -0.36559999 
-0.13380003 1.22000003 -0.353399992 
-0.13380003 1.23220003 -0.36559999 
-0.13380003 1.23220003 -0.353399992 
-0.146000028 1.22000003 -0.341199994 
-0.146000028 1.22000003 -0.328999996 
-0.146000028 1.23220003 -0.341199994 
-0.146000028 1.23220003 -0.328999996 
-0.13380003 1.22000003 -0.341199994 
-0.13380003 1.22000003 -0.328999996 
-0.13380003 1.23220003 -0.341199994 
-0.13380003 1.23220003 -0.328999996 
-0.146000028 1.22000003 -0.316799998 
-0.146000028 1.22000003 -0.3046 
-0.146000028 1.23220003 -0.316799998 
-0.146000028 1.23220003 -0.3046 
-0.13380003 1.22000003 -0.316799998 
-0.13380003 1.22000003 -0.3046 
-0.13380003 1.23220003 -0.316799998 
-0.13380003 1.23220003 -0.3046 
-0.146000028 1.22000003 -0.292400002 
-0.146000028 1.22000003 -0.280200005 
-0.146000028 1.23220003 -0.292400002 
-0.146000028 1.23220003 -0.280200005 
-0.13380003 1.22000003 -0.292400002 
-0.13380003 1.22000003 -0.280200005 
-0.13380003 1.23220003 -0.292400002 
-0.13380003 1.23220003 -0.280200005 
-0.146000028 1.22000003 -0.268000007 
-0.146000028 1.22000003 -0.255800009 
-0.146000028 1.23220003 -0.268000007 
-0.146000028 1.23220003 -0.255800009 
-0.13380003 1.22000003 -0.268000007 
-0.13380003 1.22000003 -0.255800009 
-0.13380003 1.23220003 -0.268000007 
-0.13380003 1.23220003 -0.255800009 
-0.146000028 1.22000003 -0.243600011 
-0.146000028 1.22000003 -0.231400013 
-0.146000028 1.23220003 -0.243600011 
-0.146000028 1.23220003 -0.231400013 
-0.13380003 1.22000003 -0.243600011 
-0.13380003 1.22000003 -0.231400013 
-0.13380003 1.23220003 -0.243600011 
-0.13380003 1.23220003 -0.231400013 
-0.13380003 1.24440002 -0.402199984 
-0.13380003 1.25660002 -0.402199984 
-0.146000028 1.24440002 -0.389999986 
-0.146000028 1.24440002 -0.377799988 
-0.146000028 1.25660002 -0.389999986 
-0.146000028 1.25660002 -0.377799988 
-0.13380003 1.24440002 -0.389999986 
-0.13380003 1.24440002 -0.377799988 
-0.13380003 1.25660002 -0.389999986 
-0.13380003 1.25660002 -0.377799988 
-0.146000028 1.24440002 -0.36559999 
-0.146000028 1.24440002 -0.353399992 
-0.146000028 1.25660002 -0.36559999 
-0.146000028 1.25660002 -0.353399992 
-0.13380003 1.24440002 -0.36559999 
-0.13380003 1.24440002 -0.353399992 
-0.13380003 1.25660002 -0.36559999 
-0.13380003 1.25660002 -0.353399992 
-0.146000028 1.24440002 -0.341199994 
-0.146000028 1.24440002 -0.328999996 
-0.146000028 1.25660002 -0.341199994 
-0.146000028 1.25660002 -0.328999996 
-0.13380003 1.24440002 -0.341199994 
-0.13380003 1.24440002 -0.328999996 
-0.13380003 1.25660002 -0.341199994 
-0.13380003 1.25660002 -0.328999996 
-0.146000028 1.24440002 -0.316799998 
-0.146000028 1.24440002 -0.3046 
-0.146000028 1.25660002 -0.316799998 
-0.146000028 1.25660002 -0.3046 
-0.13380003 1.24440002 -0.316799998 
-0.13380003 1.24440002 -0.3046 
-0.13380003 1.25660002 -0.316799998 
-0.13380003 1.25660002 -0.3046 
-0.146000028 1.24440002 -0.292400002 
-0.146000028 1.24440002 -0.280200005 
-0.146000028 1.25660002 -0.292400002 
-0.146000028 1.25660002 -0.280200005 
-0.13380003 1.24440002 -0.292400002 
-0.13380003 1.24440002 -0.280200005 
-0.13380003 1.25660002 -0.292400002 
-0.13380003 1.25660002 -0.280200005 
-0.146000028 1.24440002 -0.268000007 
-0.146000028 1.24440002 -0.255800009 
-0.146000028 1.25660002 -0.268000007 
-0.146000028 1.25660002 -0.255800009 
-0.13380003 1.24440002 -0.268000007 
-0.13380003 1.24440002 -0.255800009 
-0.13380003 1.25660002 -0.268000007 
-0.13380003 1.25660002 -0.255800009 
-0.146000028 1.24440002 -0.243600011 
-0.146000028 1.24440002 -0.231400013 
-0.146000028 1.25660002 -0.243600011 
-0.146000028 1.25660002 -0.231400013 
-0.13380003 1.24440002 -0.243600011 
-0.13380003 1.24440002 -0.231400013 
-0.13380003 1.25660002 -0.243600011 
-0.13380003 1.25660002 -0.231400013 
-0.146000028 1.26880002 -0.377799988 
-0.146000028 1.28100002 -0.377799988 
-0.13380003 1.26880002 -0.389999986 
-0.13380003 1.26880002 -0.377799988 
-0.13380003 1.28100002 -0.389999986 
-0.13380003 1.28100002 -0.377799988 
-0.146000028 1.26880002 -0.36559999 
-0.146000028 1.26880002 -0.353399992 
-0.146000028 1.28100002 -0.36559999 
-0.146000028 1.28100002 -0.353399992 
-0.13380003 1.26880002 -0.36559999 
-0.13380003 1.26880002 -0.353399992 
-0.13380003 1.28100002 -0.36559999 
-0.13380003 1.28100002 -0.353399992 
-0.146000028 1.26880002 -0.341199994 
-0.146000028 1.26880002 -0.328999996 
-0.146000028 1.28100002 -0.341199994 
-0.146000028 1.28100002 -0.328999996 
-0.13380003 1.26880002 -0.341199994 
-0.13380003 1.26880002 -0.328999996 
-0.13380003 1.28100002 -0.341199994 
-0.13380003 1.28100002 -0.328999996 
-0.146000028 1.26880002 -0.316799998 
-0.146000028 1.26880002 -0.3046 
-0.146000028 1.28100002 -0.316799998 
-0.146000028 1.28100002 -0.3046 
-0.13380003 1.26880002 -0.316799998 
-0.13380003 1.26880002 -0.3046 
-0.13380003 1.28100002 -0.316799998 
-0.13380003 1.28100002 -0.3046 
-0.146000028 1.26880002 -0.292400002 
-0.146000028 1.26880002 -0.280200005 
-0.146000028 1.28100002 -0.292400002 
-0.146000028 1.28100002 -0.280200005 
-0.13380003 1.26880002 -0.292400002 
-0.13380003 1.26880002 -0.280200005 
-0.13380003 1.28100002 -0.292400002 
-0.13380003 1.28100002 -0.280200005 
-0.146000028 1.26880002 -0.268000007 
-0.146000028 1.26880002 -0.255800009 
-0.146000028 1.28100002 -0.268000007 
-0.146000028 1.28100002 -0.255800009 
-0.13380003 1.26880002 -0.268000007 
-0.13380003 1.26880002 -0.255800009 
-0.13380003 1.28100002 -0.268000007 
-0.13380003 1.28100002 -0.255800009 
-0.146000028 1.26880002 -0.243600011 
-0.146000028 1.26880002 -0.231400013 
-0.146000028 1.28100002 -0.243600011 
-0.146000028 1.28100002 -0.231400013 
-0.13380003 1.26880002 -0.243600011 
-0.13380003 1.26880002 -0.231400013 
-0.13380003 1.28100002 -0.243600011 
-0.13380003 1.28100002 -0.231400013 
-0.13380003 1.29320002 -0.389999986 
-0.13380003 1.29320002 -0.377799988 
-0.13380003 1.30540001 -0.377799988 
-0.146000028 1.29320002 -0.36559999 
-0.146000028 1.29320002 -0.353399992 
-0.146000028 1.30540001 -0.353399992 
-0.13380003 1.29320002 -0.36559999 
-0.13380003 1.29320002 -0.353399992 
-0.13380003 1.30540001 -0.36559999 
-0.13380003 1.30540001 -0.353399992 
-0.146000028 1.29320002 -0.341199994 
