ply
format ascii 1.0
comment created by gply, a Houdini tool.
comment converted from .[b]geo
comment for more information about Houdini, try:
comment www.sidefx.com
element vertex 1308
property float x
property float y
property float z
element face 0
property list uchar int vertex_indices
end_header
0.548999965 0.610000014 0.341600001 
0.548999965 0.610000014 0.3477 
0.548999965 0.616100013 0.341600001 
0.548999965 0.616100013 0.3477 
0.555099964 0.610000014 0.341600001 
0.555099964 0.610000014 0.3477 
0.555099964 0.616100013 0.341600001 
0.555099964 0.616100013 0.3477 
0.548999965 0.610000014 0.353799999 
0.548999965 0.610000014 0.359899998 
0.548999965 0.616100013 0.353799999 
0.548999965 0.616100013 0.359899998 
0.555099964 0.610000014 0.353799999 
0.555099964 0.610000014 0.359899998 
0.555099964 0.616100013 0.353799999 
0.555099964 0.616100013 0.359899998 
0.548999965 0.610000014 0.365999997 
0.548999965 0.610000014 0.372099996 
0.548999965 0.616100013 0.365999997 
0.548999965 0.616100013 0.372099996 
0.555099964 0.610000014 0.365999997 
0.555099964 0.610000014 0.372099996 
0.555099964 0.616100013 0.365999997 
0.555099964 0.616100013 0.372099996 
0.548999965 0.610000014 0.378199995 
0.548999965 0.610000014 0.384299994 
0.548999965 0.616100013 0.378199995 
0.548999965 0.616100013 0.384299994 
0.555099964 0.610000014 0.378199995 
0.555099964 0.610000014 0.384299994 
0.555099964 0.616100013 0.378199995 
0.555099964 0.616100013 0.384299994 
0.548999965 0.622200012 0.292800009 
0.548999965 0.622200012 0.298900008 
0.548999965 0.628300011 0.292800009 
0.548999965 0.628300011 0.298900008 
0.555099964 0.622200012 0.292800009 
0.555099964 0.622200012 0.298900008 
0.555099964 0.628300011 0.292800009 
0.555099964 0.628300011 0.298900008 
0.548999965 0.622200012 0.305000007 
0.548999965 0.622200012 0.311100006 
0.548999965 0.628300011 0.305000007 
0.548999965 0.628300011 0.311100006 
0.555099964 0.622200012 0.305000007 
0.555099964 0.622200012 0.311100006 
0.555099964 0.628300011 0.305000007 
0.555099964 0.628300011 0.311100006 
0.548999965 0.622200012 0.317200005 
0.548999965 0.622200012 0.323300004 
0.548999965 0.628300011 0.317200005 
0.548999965 0.628300011 0.323300004 
0.555099964 0.622200012 0.317200005 
0.555099964 0.622200012 0.323300004 
0.555099964 0.628300011 0.317200005 
0.555099964 0.628300011 0.323300004 
0.548999965 0.622200012 0.329400003 
0.548999965 0.622200012 0.335500002 
0.548999965 0.628300011 0.329400003 
0.548999965 0.628300011 0.335500002 
0.555099964 0.622200012 0.329400003 
0.555099964 0.622200012 0.335500002 
0.555099964 0.628300011 0.329400003 
0.555099964 0.628300011 0.335500002 
0.548999965 0.622200012 0.341600001 
0.548999965 0.622200012 0.3477 
0.548999965 0.628300011 0.341600001 
0.548999965 0.628300011 0.3477 
0.555099964 0.622200012 0.341600001 
0.555099964 0.622200012 0.3477 
0.555099964 0.628300011 0.341600001 
0.555099964 0.628300011 0.3477 
0.548999965 0.622200012 0.353799999 
0.548999965 0.622200012 0.359899998 
0.548999965 0.628300011 0.353799999 
0.548999965 0.628300011 0.359899998 
0.555099964 0.622200012 0.353799999 
0.555099964 0.622200012 0.359899998 
0.555099964 0.628300011 0.353799999 
0.555099964 0.628300011 0.359899998 
0.548999965 0.622200012 0.365999997 
0.548999965 0.622200012 0.372099996 
0.548999965 0.628300011 0.365999997 
0.548999965 0.628300011 0.372099996 
0.555099964 0.622200012 0.365999997 
0.555099964 0.622200012 0.372099996 
0.555099964 0.628300011 0.365999997 
0.555099964 0.628300011 0.372099996 
0.548999965 0.622200012 0.378199995 
0.548999965 0.622200012 0.384299994 
0.548999965 0.628300011 0.378199995 
0.548999965 0.628300011 0.384299994 
0.555099964 0.622200012 0.378199995 
0.555099964 0.622200012 0.384299994 
0.555099964 0.628300011 0.378199995 
0.555099964 0.628300011 0.384299994 
0.548999965 0.63440001 0.298900008 
0.548999965 0.640500009 0.298900008 
0.555099964 0.63440001 0.298900008 
0.555099964 0.640500009 0.298900008 
0.548999965 0.63440001 0.305000007 
0.548999965 0.63440001 0.311100006 
0.548999965 0.640500009 0.305000007 
0.548999965 0.640500009 0.311100006 
0.555099964 0.63440001 0.305000007 
0.555099964 0.63440001 0.311100006 
0.555099964 0.640500009 0.305000007 
0.555099964 0.640500009 0.311100006 
0.548999965 0.63440001 0.317200005 
0.548999965 0.63440001 0.323300004 
0.548999965 0.640500009 0.317200005 
0.548999965 0.640500009 0.323300004 
0.555099964 0.63440001 0.317200005 
0.555099964 0.63440001 0.323300004 
0.555099964 0.640500009 0.317200005 
0.555099964 0.640500009 0.323300004 
0.548999965 0.63440001 0.329400003 
0.548999965 0.63440001 0.335500002 
0.548999965 0.640500009 0.329400003 
0.548999965 0.640500009 0.335500002 
0.555099964 0.63440001 0.329400003 
0.555099964 0.63440001 0.335500002 
0.555099964 0.640500009 0.329400003 
0.555099964 0.640500009 0.335500002 
0.548999965 0.63440001 0.341600001 
0.548999965 0.63440001 0.3477 
0.548999965 0.640500009 0.341600001 
0.548999965 0.640500009 0.3477 
0.555099964 0.63440001 0.341600001 
0.555099964 0.63440001 0.3477 
0.555099964 0.640500009 0.341600001 
0.555099964 0.640500009 0.3477 
0.548999965 0.63440001 0.353799999 
0.548999965 0.63440001 0.359899998 
0.548999965 0.640500009 0.353799999 
0.548999965 0.640500009 0.359899998 
0.555099964 0.63440001 0.353799999 
0.555099964 0.63440001 0.359899998 
0.555099964 0.640500009 0.353799999 
0.555099964 0.640500009 0.359899998 
0.548999965 0.63440001 0.365999997 
0.548999965 0.63440001 0.372099996 
0.548999965 0.640500009 0.365999997 
0.548999965 0.640500009 0.372099996 
0.555099964 0.63440001 0.365999997 
0.555099964 0.63440001 0.372099996 
0.555099964 0.640500009 0.365999997 
0.555099964 0.640500009 0.372099996 
0.548999965 0.63440001 0.378199995 
0.548999965 0.63440001 0.384299994 
0.548999965 0.640500009 0.378199995 
0.548999965 0.640500009 0.384299994 
0.555099964 0.63440001 0.378199995 
0.555099964 0.63440001 0.384299994 
0.555099964 0.640500009 0.378199995 
0.555099964 0.640500009 0.384299994 
0.548999965 0.646600008 0.298900008 
0.548999965 0.646600008 0.305000007 
0.548999965 0.646600008 0.311100006 
0.548999965 0.652700007 0.305000007 
0.548999965 0.652700007 0.311100006 
0.555099964 0.646600008 0.305000007 
0.555099964 0.646600008 0.311100006 
0.555099964 0.652700007 0.305000007 
0.555099964 0.652700007 0.311100006 
0.548999965 0.646600008 0.317200005 
0.548999965 0.646600008 0.323300004 
0.548999965 0.652700007 0.317200005 
0.548999965 0.652700007 0.323300004 
0.555099964 0.646600008 0.317200005 
0.555099964 0.646600008 0.323300004 
0.555099964 0.652700007 0.317200005 
0.555099964 0.652700007 0.323300004 
0.548999965 0.646600008 0.329400003 
0.548999965 0.646600008 0.335500002 
0.548999965 0.652700007 0.329400003 
0.548999965 0.652700007 0.335500002 
0.555099964 0.646600008 0.329400003 
0.555099964 0.646600008 0.335500002 
0.555099964 0.652700007 0.329400003 
0.555099964 0.652700007 0.335500002 
0.548999965 0.646600008 0.341600001 
0.548999965 0.646600008 0.3477 
0.548999965 0.652700007 0.341600001 
0.548999965 0.652700007 0.3477 
0.555099964 0.646600008 0.341600001 
0.555099964 0.646600008 0.3477 
0.555099964 0.652700007 0.341600001 
0.555099964 0.652700007 0.3477 
0.548999965 0.646600008 0.353799999 
0.548999965 0.646600008 0.359899998 
0.548999965 0.652700007 0.353799999 
0.548999965 0.652700007 0.359899998 
0.555099964 0.646600008 0.353799999 
0.555099964 0.646600008 0.359899998 
0.555099964 0.652700007 0.353799999 
0.555099964 0.652700007 0.359899998 
0.548999965 0.646600008 0.365999997 
0.548999965 0.646600008 0.372099996 
0.548999965 0.652700007 0.365999997 
0.548999965 0.652700007 0.372099996 
0.555099964 0.646600008 0.365999997 
0.555099964 0.646600008 0.372099996 
0.555099964 0.652700007 0.365999997 
0.555099964 0.652700007 0.372099996 
0.548999965 0.646600008 0.378199995 
0.548999965 0.646600008 0.384299994 
0.548999965 0.652700007 0.378199995 
0.548999965 0.652700007 0.384299994 
0.555099964 0.646600008 0.378199995 
0.555099964 0.646600008 0.384299994 
0.555099964 0.652700007 0.378199995 
0.555099964 0.652700007 0.384299994 
0.548999965 0.658800006 0.305000007 
0.548999965 0.658800006 0.311100006 
0.548999965 0.664900005 0.311100006 
0.555099964 0.658800006 0.305000007 
0.555099964 0.658800006 0.311100006 
0.555099964 0.664900005 0.311100006 
0.548999965 0.658800006 0.317200005 
0.548999965 0.658800006 0.323300004 
0.548999965 0.664900005 0.317200005 
0.548999965 0.664900005 0.323300004 
0.555099964 0.658800006 0.317200005 
0.555099964 0.658800006 0.323300004 
0.555099964 0.664900005 0.317200005 
0.555099964 0.664900005 0.323300004 
0.548999965 0.658800006 0.329400003 
0.548999965 0.658800006 0.335500002 
0.548999965 0.664900005 0.329400003 
0.548999965 0.664900005 0.335500002 
0.555099964 0.658800006 0.329400003 
0.555099964 0.658800006 0.335500002 
0.555099964 0.664900005 0.329400003 
0.555099964 0.664900005 0.335500002 
0.548999965 0.658800006 0.341600001 
0.548999965 0.658800006 0.3477 
0.548999965 0.664900005 0.341600001 
0.548999965 0.664900005 0.3477 
0.555099964 0.658800006 0.341600001 
0.555099964 0.658800006 0.3477 
0.555099964 0.664900005 0.341600001 
0.555099964 0.664900005 0.3477 
0.548999965 0.658800006 0.353799999 
0.548999965 0.658800006 0.359899998 
0.548999965 0.664900005 0.353799999 
0.548999965 0.664900005 0.359899998 
0.555099964 0.658800006 0.353799999 
0.555099964 0.658800006 0.359899998 
0.555099964 0.664900005 0.353799999 
0.555099964 0.664900005 0.359899998 
0.548999965 0.658800006 0.365999997 
0.548999965 0.658800006 0.372099996 
0.548999965 0.664900005 0.365999997 
0.548999965 0.664900005 0.372099996 
0.555099964 0.658800006 0.365999997 
0.555099964 0.658800006 0.372099996 
0.555099964 0.664900005 0.365999997 
0.555099964 0.664900005 0.372099996 
0.548999965 0.658800006 0.378199995 
0.548999965 0.658800006 0.384299994 
0.548999965 0.664900005 0.378199995 
0.548999965 0.664900005 0.384299994 
0.555099964 0.658800006 0.378199995 
0.555099964 0.658800006 0.384299994 
0.555099964 0.664900005 0.378199995 
0.555099964 0.664900005 0.384299994 
0.548999965 0.671000004 0.311100006 
0.548999965 0.671000004 0.317200005 
0.548999965 0.671000004 0.323300004 
0.548999965 0.677100003 0.317200005 
0.548999965 0.677100003 0.323300004 
0.555099964 0.671000004 0.317200005 
0.555099964 0.671000004 0.323300004 
0.555099964 0.677100003 0.317200005 
0.555099964 0.677100003 0.323300004 
0.548999965 0.671000004 0.329400003 
0.548999965 0.671000004 0.335500002 
0.548999965 0.677100003 0.329400003 
0.548999965 0.677100003 0.335500002 
0.555099964 0.671000004 0.329400003 
0.555099964 0.671000004 0.335500002 
0.555099964 0.677100003 0.329400003 
0.555099964 0.677100003 0.335500002 
0.548999965 0.671000004 0.341600001 
0.548999965 0.671000004 0.3477 
0.548999965 0.677100003 0.341600001 
0.548999965 0.677100003 0.3477 
0.555099964 0.671000004 0.341600001 
0.555099964 0.671000004 0.3477 
0.555099964 0.677100003 0.341600001 
0.555099964 0.677100003 0.3477 
0.548999965 0.671000004 0.353799999 
0.548999965 0.671000004 0.359899998 
0.548999965 0.677100003 0.353799999 
0.548999965 0.677100003 0.359899998 
0.555099964 0.671000004 0.353799999 
0.555099964 0.671000004 0.359899998 
0.555099964 0.677100003 0.353799999 
0.555099964 0.677100003 0.359899998 
0.548999965 0.671000004 0.365999997 
0.548999965 0.671000004 0.372099996 
0.548999965 0.677100003 0.365999997 
0.548999965 0.677100003 0.372099996 
0.555099964 0.671000004 0.365999997 
0.555099964 0.671000004 0.372099996 
0.555099964 0.677100003 0.365999997 
0.555099964 0.677100003 0.372099996 
0.548999965 0.671000004 0.378199995 
0.548999965 0.671000004 0.384299994 
0.548999965 0.677100003 0.378199995 
0.548999965 0.677100003 0.384299994 
0.555099964 0.671000004 0.378199995 
0.555099964 0.671000004 0.384299994 
0.555099964 0.677100003 0.378199995 
0.555099964 0.677100003 0.384299994 
0.561199963 0.585600019 0.292800009 
0.561199963 0.585600019 0.298900008 
0.561199963 0.591700017 0.292800009 
0.561199963 0.591700017 0.298900008 
0.567299962 0.585600019 0.292800009 
0.567299962 0.585600019 0.298900008 
0.567299962 0.591700017 0.292800009 
0.567299962 0.591700017 0.298900008 
0.561199963 0.585600019 0.305000007 
0.561199963 0.585600019 0.311100006 
0.561199963 0.591700017 0.305000007 
0.561199963 0.591700017 0.311100006 
0.567299962 0.585600019 0.305000007 
0.567299962 0.585600019 0.311100006 
0.567299962 0.591700017 0.305000007 
0.567299962 0.591700017 0.311100006 
0.561199963 0.585600019 0.317200005 
0.561199963 0.585600019 0.323300004 
0.561199963 0.591700017 0.317200005 
0.561199963 0.591700017 0.323300004 
0.567299962 0.585600019 0.317200005 
0.567299962 0.585600019 0.323300004 
0.567299962 0.591700017 0.317200005 
0.567299962 0.591700017 0.323300004 
0.561199963 0.585600019 0.329400003 
0.561199963 0.585600019 0.335500002 
0.561199963 0.591700017 0.329400003 
0.561199963 0.591700017 0.335500002 
0.567299962 0.585600019 0.329400003 
0.567299962 0.585600019 0.335500002 
0.567299962 0.591700017 0.329400003 
0.567299962 0.591700017 0.335500002 
0.561199963 0.585600019 0.341600001 
0.561199963 0.585600019 0.3477 
0.561199963 0.591700017 0.341600001 
0.561199963 0.591700017 0.3477 
0.567299962 0.585600019 0.341600001 
0.567299962 0.585600019 0.3477 
0.567299962 0.591700017 0.341600001 
0.567299962 0.591700017 0.3477 
0.561199963 0.585600019 0.353799999 
0.561199963 0.585600019 0.359899998 
0.561199963 0.591700017 0.353799999 
0.561199963 0.591700017 0.359899998 
0.567299962 0.585600019 0.353799999 
0.567299962 0.585600019 0.359899998 
0.567299962 0.591700017 0.353799999 
0.567299962 0.591700017 0.359899998 
0.561199963 0.585600019 0.365999997 
0.561199963 0.585600019 0.372099996 
0.561199963 0.591700017 0.365999997 
0.561199963 0.591700017 0.372099996 
0.567299962 0.585600019 0.365999997 
0.567299962 0.585600019 0.372099996 
0.567299962 0.591700017 0.365999997 
0.567299962 0.591700017 0.372099996 
0.561199963 0.585600019 0.378199995 
0.561199963 0.585600019 0.384299994 
0.561199963 0.591700017 0.378199995 
0.561199963 0.591700017 0.384299994 
0.567299962 0.585600019 0.378199995 
0.567299962 0.585600019 0.384299994 
0.567299962 0.591700017 0.378199995 
0.567299962 0.591700017 0.384299994 
0.561199963 0.597800016 0.292800009 
0.561199963 0.597800016 0.298900008 
0.561199963 0.603900015 0.292800009 
0.561199963 0.603900015 0.298900008 
0.567299962 0.597800016 0.292800009 
0.567299962 0.597800016 0.298900008 
0.567299962 0.603900015 0.292800009 
0.567299962 0.603900015 0.298900008 
0.561199963 0.597800016 0.305000007 
0.561199963 0.597800016 0.311100006 
0.561199963 0.603900015 0.305000007 
0.561199963 0.603900015 0.311100006 
0.567299962 0.597800016 0.305000007 
0.567299962 0.597800016 0.311100006 
0.567299962 0.603900015 0.305000007 
0.567299962 0.603900015 0.311100006 
0.561199963 0.597800016 0.317200005 
0.561199963 0.597800016 0.323300004 
0.561199963 0.603900015 0.317200005 
0.561199963 0.603900015 0.323300004 
0.567299962 0.597800016 0.317200005 
0.567299962 0.597800016 0.323300004 
0.567299962 0.603900015 0.317200005 
0.567299962 0.603900015 0.323300004 
0.561199963 0.597800016 0.329400003 
0.561199963 0.597800016 0.335500002 
0.561199963 0.603900015 0.329400003 
0.561199963 0.603900015 0.335500002 
0.567299962 0.597800016 0.329400003 
0.567299962 0.597800016 0.335500002 
0.567299962 0.603900015 0.329400003 
0.567299962 0.603900015 0.335500002 
0.561199963 0.597800016 0.341600001 
0.561199963 0.597800016 0.3477 
0.561199963 0.603900015 0.341600001 
0.561199963 0.603900015 0.3477 
0.567299962 0.597800016 0.341600001 
0.567299962 0.597800016 0.3477 
0.567299962 0.603900015 0.341600001 
0.567299962 0.603900015 0.3477 
0.561199963 0.597800016 0.353799999 
0.561199963 0.597800016 0.359899998 
0.561199963 0.603900015 0.353799999 
0.561199963 0.603900015 0.359899998 
0.567299962 0.597800016 0.353799999 
0.567299962 0.597800016 0.359899998 
0.567299962 0.603900015 0.353799999 
0.567299962 0.603900015 0.359899998 
0.561199963 0.597800016 0.365999997 
0.561199963 0.597800016 0.372099996 
0.561199963 0.603900015 0.365999997 
0.561199963 0.603900015 0.372099996 
0.567299962 0.597800016 0.365999997 
0.567299962 0.597800016 0.372099996 
0.567299962 0.603900015 0.365999997 
0.567299962 0.603900015 0.372099996 
0.561199963 0.597800016 0.378199995 
0.561199963 0.597800016 0.384299994 
0.561199963 0.603900015 0.378199995 
0.561199963 0.603900015 0.384299994 
0.567299962 0.597800016 0.378199995 
0.567299962 0.597800016 0.384299994 
0.567299962 0.603900015 0.378199995 
0.567299962 0.603900015 0.384299994 
0.561199963 0.610000014 0.292800009 
0.561199963 0.610000014 0.298900008 
0.561199963 0.616100013 0.292800009 
0.561199963 0.616100013 0.298900008 
0.567299962 0.610000014 0.292800009 
0.567299962 0.610000014 0.298900008 
0.567299962 0.616100013 0.292800009 
0.567299962 0.616100013 0.298900008 
0.561199963 0.610000014 0.305000007 
0.561199963 0.610000014 0.311100006 
0.561199963 0.616100013 0.305000007 
0.561199963 0.616100013 0.311100006 
0.567299962 0.610000014 0.305000007 
0.567299962 0.610000014 0.311100006 
0.567299962 0.616100013 0.305000007 
0.567299962 0.616100013 0.311100006 
0.561199963 0.610000014 0.317200005 
0.561199963 0.610000014 0.323300004 
0.561199963 0.616100013 0.317200005 
0.561199963 0.616100013 0.323300004 
0.567299962 0.610000014 0.317200005 
0.567299962 0.610000014 0.323300004 
0.567299962 0.616100013 0.317200005 
0.567299962 0.616100013 0.323300004 
0.561199963 0.610000014 0.329400003 
0.561199963 0.610000014 0.335500002 
0.561199963 0.616100013 0.329400003 
0.561199963 0.616100013 0.335500002 
0.567299962 0.610000014 0.329400003 
0.567299962 0.610000014 0.335500002 
0.567299962 0.616100013 0.329400003 
0.567299962 0.616100013 0.335500002 
0.561199963 0.610000014 0.341600001 
0.561199963 0.610000014 0.3477 
0.561199963 0.616100013 0.341600001 
0.561199963 0.616100013 0.3477 
0.567299962 0.610000014 0.341600001 
0.567299962 0.610000014 0.3477 
0.567299962 0.616100013 0.341600001 
0.567299962 0.616100013 0.3477 
0.561199963 0.610000014 0.353799999 
0.561199963 0.610000014 0.359899998 
0.561199963 0.616100013 0.353799999 
0.561199963 0.616100013 0.359899998 
0.567299962 0.610000014 0.353799999 
0.567299962 0.610000014 0.359899998 
0.567299962 0.616100013 0.353799999 
0.567299962 0.616100013 0.359899998 
0.561199963 0.610000014 0.365999997 
0.561199963 0.610000014 0.372099996 
0.561199963 0.616100013 0.365999997 
0.561199963 0.616100013 0.372099996 
0.567299962 0.610000014 0.365999997 
0.567299962 0.610000014 0.372099996 
0.567299962 0.616100013 0.365999997 
0.567299962 0.616100013 0.372099996 
0.561199963 0.610000014 0.378199995 
0.561199963 0.610000014 0.384299994 
0.561199963 0.616100013 0.378199995 
0.561199963 0.616100013 0.384299994 
0.567299962 0.610000014 0.378199995 
0.567299962 0.610000014 0.384299994 
0.567299962 0.616100013 0.378199995 
0.567299962 0.616100013 0.384299994 
0.561199963 0.622200012 0.292800009 
0.561199963 0.622200012 0.298900008 
0.561199963 0.628300011 0.298900008 
0.567299962 0.622200012 0.298900008 
0.567299962 0.628300011 0.298900008 
0.561199963 0.622200012 0.305000007 
0.561199963 0.622200012 0.311100006 
0.561199963 0.628300011 0.305000007 
0.561199963 0.628300011 0.311100006 
0.567299962 0.622200012 0.305000007 
0.567299962 0.622200012 0.311100006 
0.567299962 0.628300011 0.305000007 
0.567299962 0.628300011 0.311100006 
0.561199963 0.622200012 0.317200005 
0.561199963 0.622200012 0.323300004 
0.561199963 0.628300011 0.317200005 
0.561199963 0.628300011 0.323300004 
0.567299962 0.622200012 0.317200005 
0.567299962 0.622200012 0.323300004 
0.567299962 0.628300011 0.317200005 
0.567299962 0.628300011 0.323300004 
0.561199963 0.622200012 0.329400003 
0.561199963 0.622200012 0.335500002 
0.561199963 0.628300011 0.329400003 
0.561199963 0.628300011 0.335500002 
0.567299962 0.622200012 0.329400003 
0.567299962 0.622200012 0.335500002 
0.567299962 0.628300011 0.329400003 
0.567299962 0.628300011 0.335500002 
0.561199963 0.622200012 0.341600001 
0.561199963 0.622200012 0.3477 
0.561199963 0.628300011 0.341600001 
0.561199963 0.628300011 0.3477 
0.567299962 0.622200012 0.341600001 
0.567299962 0.622200012 0.3477 
0.567299962 0.628300011 0.341600001 
0.567299962 0.628300011 0.3477 
0.561199963 0.622200012 0.353799999 
0.561199963 0.622200012 0.359899998 
0.561199963 0.628300011 0.353799999 
0.561199963 0.628300011 0.359899998 
0.567299962 0.622200012 0.353799999 
0.567299962 0.622200012 0.359899998 
0.567299962 0.628300011 0.353799999 
0.567299962 0.628300011 0.359899998 
0.561199963 0.622200012 0.365999997 
0.561199963 0.622200012 0.372099996 
0.561199963 0.628300011 0.365999997 
0.561199963 0.628300011 0.372099996 
0.567299962 0.622200012 0.365999997 
0.567299962 0.622200012 0.372099996 
0.567299962 0.628300011 0.365999997 
0.567299962 0.628300011 0.372099996 
0.561199963 0.622200012 0.378199995 
0.561199963 0.622200012 0.384299994 
0.561199963 0.628300011 0.378199995 
0.561199963 0.628300011 0.384299994 
0.567299962 0.622200012 0.378199995 
0.567299962 0.622200012 0.384299994 
0.567299962 0.628300011 0.378199995 
0.567299962 0.628300011 0.384299994 
0.561199963 0.63440001 0.298900008 
0.561199963 0.63440001 0.305000007 
0.561199963 0.63440001 0.311100006 
0.561199963 0.640500009 0.305000007 
0.561199963 0.640500009 0.311100006 
0.567299962 0.63440001 0.305000007 
0.567299962 0.63440001 0.311100006 
0.567299962 0.640500009 0.305000007 
0.567299962 0.640500009 0.311100006 
0.561199963 0.63440001 0.317200005 
0.561199963 0.63440001 0.323300004 
0.561199963 0.640500009 0.317200005 
0.561199963 0.640500009 0.323300004 
0.567299962 0.63440001 0.317200005 
0.567299962 0.63440001 0.323300004 
0.567299962 0.640500009 0.317200005 
0.567299962 0.640500009 0.323300004 
0.561199963 0.63440001 0.329400003 
0.561199963 0.63440001 0.335500002 
0.561199963 0.640500009 0.329400003 
0.561199963 0.640500009 0.335500002 
0.567299962 0.63440001 0.329400003 
0.567299962 0.63440001 0.335500002 
0.567299962 0.640500009 0.329400003 
0.567299962 0.640500009 0.335500002 
0.561199963 0.63440001 0.341600001 
0.561199963 0.63440001 0.3477 
0.561199963 0.640500009 0.341600001 
0.561199963 0.640500009 0.3477 
0.567299962 0.63440001 0.341600001 
0.567299962 0.63440001 0.3477 
0.567299962 0.640500009 0.341600001 
0.567299962 0.640500009 0.3477 
0.561199963 0.63440001 0.353799999 
0.561199963 0.63440001 0.359899998 
0.561199963 0.640500009 0.353799999 
0.561199963 0.640500009 0.359899998 
0.567299962 0.63440001 0.353799999 
0.567299962 0.63440001 0.359899998 
0.567299962 0.640500009 0.353799999 
0.567299962 0.640500009 0.359899998 
0.561199963 0.63440001 0.365999997 
0.561199963 0.63440001 0.372099996 
0.561199963 0.640500009 0.365999997 
0.561199963 0.640500009 0.372099996 
0.567299962 0.63440001 0.365999997 
0.567299962 0.63440001 0.372099996 
0.567299962 0.640500009 0.365999997 
0.567299962 0.640500009 0.372099996 
0.561199963 0.63440001 0.378199995 
0.561199963 0.63440001 0.384299994 
0.561199963 0.640500009 0.378199995 
0.561199963 0.640500009 0.384299994 
0.567299962 0.63440001 0.378199995 
0.567299962 0.63440001 0.384299994 
0.567299962 0.640500009 0.378199995 
0.567299962 0.640500009 0.384299994 
0.561199963 0.646600008 0.305000007 
0.561199963 0.646600008 0.311100006 
0.561199963 0.652700007 0.305000007 
0.561199963 0.652700007 0.311100006 
0.567299962 0.646600008 0.305000007 
0.567299962 0.646600008 0.311100006 
0.567299962 0.652700007 0.311100006 
0.561199963 0.646600008 0.317200005 
0.561199963 0.646600008 0.323300004 
0.561199963 0.652700007 0.317200005 
0.561199963 0.652700007 0.323300004 
0.567299962 0.646600008 0.317200005 
0.567299962 0.646600008 0.323300004 
0.567299962 0.652700007 0.317200005 
0.567299962 0.652700007 0.323300004 
0.561199963 0.646600008 0.329400003 
0.561199963 0.646600008 0.335500002 
0.561199963 0.652700007 0.329400003 
0.561199963 0.652700007 0.335500002 
0.567299962 0.646600008 0.329400003 
0.567299962 0.646600008 0.335500002 
0.567299962 0.652700007 0.329400003 
0.567299962 0.652700007 0.335500002 
0.561199963 0.646600008 0.341600001 
0.561199963 0.646600008 0.3477 
0.561199963 0.652700007 0.341600001 
0.561199963 0.652700007 0.3477 
0.567299962 0.646600008 0.341600001 
0.567299962 0.646600008 0.3477 
0.567299962 0.652700007 0.341600001 
0.567299962 0.652700007 0.3477 
0.561199963 0.646600008 0.353799999 
0.561199963 0.646600008 0.359899998 
0.561199963 0.652700007 0.353799999 
0.561199963 0.652700007 0.359899998 
0.567299962 0.646600008 0.353799999 
0.567299962 0.646600008 0.359899998 
0.567299962 0.652700007 0.353799999 
0.567299962 0.652700007 0.359899998 
0.561199963 0.646600008 0.365999997 
0.561199963 0.646600008 0.372099996 
0.561199963 0.652700007 0.365999997 
0.561199963 0.652700007 0.372099996 
0.567299962 0.646600008 0.365999997 
0.567299962 0.646600008 0.372099996 
0.567299962 0.652700007 0.365999997 
0.567299962 0.652700007 0.372099996 
0.561199963 0.646600008 0.378199995 
0.561199963 0.646600008 0.384299994 
0.561199963 0.652700007 0.378199995 
0.561199963 0.652700007 0.384299994 
0.567299962 0.646600008 0.378199995 
0.567299962 0.646600008 0.384299994 
0.567299962 0.652700007 0.378199995 
0.567299962 0.652700007 0.384299994 
0.561199963 0.658800006 0.311100006 
0.561199963 0.664900005 0.311100006 
0.567299962 0.658800006 0.311100006 
0.561199963 0.658800006 0.317200005 
0.561199963 0.658800006 0.323300004 
0.561199963 0.664900005 0.317200005 
0.561199963 0.664900005 0.323300004 
0.567299962 0.658800006 0.317200005 
0.567299962 0.658800006 0.323300004 
0.567299962 0.664900005 0.317200005 
0.567299962 0.664900005 0.323300004 
0.561199963 0.658800006 0.329400003 
0.561199963 0.658800006 0.335500002 
0.561199963 0.664900005 0.329400003 
0.561199963 0.664900005 0.335500002 
0.567299962 0.658800006 0.329400003 
0.567299962 0.658800006 0.335500002 
0.567299962 0.664900005 0.329400003 
0.567299962 0.664900005 0.335500002 
0.561199963 0.658800006 0.341600001 
0.561199963 0.658800006 0.3477 
0.561199963 0.664900005 0.341600001 
0.561199963 0.664900005 0.3477 
0.567299962 0.658800006 0.341600001 
0.567299962 0.658800006 0.3477 
0.567299962 0.664900005 0.341600001 
0.567299962 0.664900005 0.3477 
0.561199963 0.658800006 0.353799999 
0.561199963 0.658800006 0.359899998 
0.561199963 0.664900005 0.353799999 
0.561199963 0.664900005 0.359899998 
0.567299962 0.658800006 0.353799999 
0.567299962 0.658800006 0.359899998 
0.567299962 0.664900005 0.353799999 
0.567299962 0.664900005 0.359899998 
0.561199963 0.658800006 0.365999997 
0.561199963 0.658800006 0.372099996 
0.561199963 0.664900005 0.365999997 
0.561199963 0.664900005 0.372099996 
0.567299962 0.658800006 0.365999997 
0.567299962 0.658800006 0.372099996 
0.567299962 0.664900005 0.365999997 
0.567299962 0.664900005 0.372099996 
0.561199963 0.658800006 0.378199995 
0.561199963 0.658800006 0.384299994 
0.561199963 0.664900005 0.378199995 
0.561199963 0.664900005 0.384299994 
0.567299962 0.658800006 0.378199995 
0.567299962 0.658800006 0.384299994 
0.567299962 0.664900005 0.378199995 
0.567299962 0.664900005 0.384299994 
0.561199963 0.671000004 0.317200005 
0.561199963 0.671000004 0.323300004 
0.561199963 0.677100003 0.323300004 
0.561199963 0.671000004 0.329400003 
0.561199963 0.671000004 0.335500002 
0.561199963 0.677100003 0.329400003 
0.561199963 0.677100003 0.335500002 
0.567299962 0.671000004 0.329400003 
0.567299962 0.671000004 0.335500002 
0.561199963 0.671000004 0.341600001 
0.561199963 0.671000004 0.3477 
0.561199963 0.677100003 0.341600001 
0.561199963 0.677100003 0.3477 
0.567299962 0.671000004 0.341600001 
0.567299962 0.671000004 0.3477 
0.567299962 0.677100003 0.341600001 
0.567299962 0.677100003 0.3477 
0.561199963 0.671000004 0.353799999 
0.561199963 0.671000004 0.359899998 
0.561199963 0.677100003 0.353799999 
0.561199963 0.677100003 0.359899998 
0.567299962 0.671000004 0.353799999 
0.567299962 0.671000004 0.359899998 
0.567299962 0.677100003 0.353799999 
0.567299962 0.677100003 0.359899998 
0.561199963 0.671000004 0.365999997 
0.561199963 0.671000004 0.372099996 
0.561199963 0.677100003 0.365999997 
0.561199963 0.677100003 0.372099996 
0.567299962 0.671000004 0.365999997 
0.567299962 0.671000004 0.372099996 
0.567299962 0.677100003 0.365999997 
0.567299962 0.677100003 0.372099996 
0.561199963 0.671000004 0.378199995 
0.561199963 0.671000004 0.384299994 
0.561199963 0.677100003 0.378199995 
0.561199963 0.677100003 0.384299994 
0.567299962 0.671000004 0.378199995 
0.567299962 0.671000004 0.384299994 
0.567299962 0.677100003 0.378199995 
0.567299962 0.677100003 0.384299994 
0.573399961 0.585600019 0.292800009 
0.573399961 0.585600019 0.298900008 
0.573399961 0.591700017 0.292800009 
0.573399961 0.591700017 0.298900008 
0.57949996 0.585600019 0.292800009 
0.57949996 0.585600019 0.298900008 
0.57949996 0.591700017 0.292800009 
0.57949996 0.591700017 0.298900008 
0.573399961 0.585600019 0.305000007 
0.573399961 0.585600019 0.311100006 
0.573399961 0.591700017 0.305000007 
0.573399961 0.591700017 0.311100006 
0.57949996 0.585600019 0.305000007 
0.57949996 0.585600019 0.311100006 
0.57949996 0.591700017 0.305000007 
0.57949996 0.591700017 0.311100006 
0.573399961 0.585600019 0.317200005 
0.573399961 0.585600019 0.323300004 
0.573399961 0.591700017 0.317200005 
0.573399961 0.591700017 0.323300004 
0.57949996 0.585600019 0.317200005 
0.57949996 0.585600019 0.323300004 
0.57949996 0.591700017 0.317200005 
0.57949996 0.591700017 0.323300004 
0.573399961 0.585600019 0.329400003 
0.573399961 0.585600019 0.335500002 
0.573399961 0.591700017 0.329400003 
0.573399961 0.591700017 0.335500002 
0.57949996 0.585600019 0.329400003 
0.57949996 0.585600019 0.335500002 
0.57949996 0.591700017 0.329400003 
0.57949996 0.591700017 0.335500002 
0.573399961 0.585600019 0.341600001 
0.573399961 0.585600019 0.3477 
0.573399961 0.591700017 0.341600001 
0.573399961 0.591700017 0.3477 
0.57949996 0.585600019 0.341600001 
0.57949996 0.585600019 0.3477 
0.57949996 0.591700017 0.341600001 
0.57949996 0.591700017 0.3477 
0.573399961 0.585600019 0.353799999 
0.573399961 0.585600019 0.359899998 
0.573399961 0.591700017 0.353799999 
0.573399961 0.591700017 0.359899998 
0.57949996 0.585600019 0.353799999 
0.57949996 0.585600019 0.359899998 
0.57949996 0.591700017 0.353799999 
0.57949996 0.591700017 0.359899998 
0.573399961 0.585600019 0.365999997 
0.573399961 0.585600019 0.372099996 
0.573399961 0.591700017 0.365999997 
0.573399961 0.591700017 0.372099996 
0.57949996 0.585600019 0.365999997 
0.57949996 0.585600019 0.372099996 
0.57949996 0.591700017 0.365999997 
0.57949996 0.591700017 0.372099996 
0.573399961 0.585600019 0.378199995 
0.573399961 0.585600019 0.384299994 
0.573399961 0.591700017 0.378199995 
0.573399961 0.591700017 0.384299994 
0.57949996 0.585600019 0.378199995 
0.57949996 0.585600019 0.384299994 
0.57949996 0.591700017 0.378199995 
0.57949996 0.591700017 0.384299994 
0.573399961 0.597800016 0.292800009 
0.573399961 0.597800016 0.298900008 
0.573399961 0.603900015 0.292800009 
0.573399961 0.603900015 0.298900008 
0.57949996 0.597800016 0.298900008 
0.57949996 0.603900015 0.298900008 
0.573399961 0.597800016 0.305000007 
0.573399961 0.597800016 0.311100006 
0.573399961 0.603900015 0.305000007 
0.573399961 0.603900015 0.311100006 
0.57949996 0.597800016 0.305000007 
0.57949996 0.597800016 0.311100006 
0.57949996 0.603900015 0.305000007 
0.57949996 0.603900015 0.311100006 
0.573399961 0.597800016 0.317200005 
0.573399961 0.597800016 0.323300004 
0.573399961 0.603900015 0.317200005 
0.573399961 0.603900015 0.323300004 
0.57949996 0.597800016 0.317200005 
0.57949996 0.597800016 0.323300004 
0.57949996 0.603900015 0.317200005 
0.57949996 0.603900015 0.323300004 
0.573399961 0.597800016 0.329400003 
0.573399961 0.597800016 0.335500002 
0.573399961 0.603900015 0.329400003 
0.573399961 0.603900015 0.335500002 
0.57949996 0.597800016 0.329400003 
0.57949996 0.597800016 0.335500002 
0.57949996 0.603900015 0.329400003 
0.57949996 0.603900015 0.335500002 
0.573399961 0.597800016 0.341600001 
0.573399961 0.597800016 0.3477 
0.573399961 0.603900015 0.341600001 
0.573399961 0.603900015 0.3477 
0.57949996 0.597800016 0.341600001 
0.57949996 0.597800016 0.3477 
0.57949996 0.603900015 0.341600001 
0.57949996 0.603900015 0.3477 
0.573399961 0.597800016 0.353799999 
0.573399961 0.597800016 0.359899998 
0.573399961 0.603900015 0.353799999 
0.573399961 0.603900015 0.359899998 
0.57949996 0.597800016 0.353799999 
0.57949996 0.597800016 0.359899998 
0.57949996 0.603900015 0.353799999 
0.57949996 0.603900015 0.359899998 
0.573399961 0.597800016 0.365999997 
0.573399961 0.597800016 0.372099996 
0.573399961 0.603900015 0.365999997 
0.573399961 0.603900015 0.372099996 
0.57949996 0.597800016 0.365999997 
0.57949996 0.597800016 0.372099996 
0.57949996 0.603900015 0.365999997 
0.57949996 0.603900015 0.372099996 
0.573399961 0.597800016 0.378199995 
0.573399961 0.597800016 0.384299994 
0.573399961 0.603900015 0.378199995 
0.573399961 0.603900015 0.384299994 
0.57949996 0.597800016 0.378199995 
0.57949996 0.597800016 0.384299994 
0.57949996 0.603900015 0.378199995 
0.57949996 0.603900015 0.384299994 
0.573399961 0.610000014 0.292800009 
0.573399961 0.610000014 0.298900008 
0.573399961 0.616100013 0.298900008 
0.573399961 0.610000014 0.305000007 
0.573399961 0.610000014 0.311100006 
0.573399961 0.616100013 0.305000007 
0.573399961 0.616100013 0.311100006 
0.57949996 0.610000014 0.305000007 
0.57949996 0.610000014 0.311100006 
0.57949996 0.616100013 0.311100006 
0.573399961 0.610000014 0.317200005 
0.573399961 0.610000014 0.323300004 
0.573399961 0.616100013 0.317200005 
0.573399961 0.616100013 0.323300004 
0.57949996 0.610000014 0.317200005 
0.57949996 0.610000014 0.323300004 
0.57949996 0.616100013 0.317200005 
0.57949996 0.616100013 0.323300004 
0.573399961 0.610000014 0.329400003 
0.573399961 0.610000014 0.335500002 
0.573399961 0.616100013 0.329400003 
0.573399961 0.616100013 0.335500002 
0.57949996 0.610000014 0.329400003 
0.57949996 0.610000014 0.335500002 
0.57949996 0.616100013 0.329400003 
0.57949996 0.616100013 0.335500002 
0.573399961 0.610000014 0.341600001 
0.573399961 0.610000014 0.3477 
0.573399961 0.616100013 0.341600001 
0.573399961 0.616100013 0.3477 
0.57949996 0.610000014 0.341600001 
0.57949996 0.610000014 0.3477 
0.57949996 0.616100013 0.341600001 
0.57949996 0.616100013 0.3477 
0.573399961 0.610000014 0.353799999 
0.573399961 0.610000014 0.359899998 
0.573399961 0.616100013 0.353799999 
0.573399961 0.616100013 0.359899998 
0.57949996 0.610000014 0.353799999 
0.57949996 0.610000014 0.359899998 
0.57949996 0.616100013 0.353799999 
0.57949996 0.616100013 0.359899998 
0.573399961 0.610000014 0.365999997 
0.573399961 0.610000014 0.372099996 
0.573399961 0.616100013 0.365999997 
0.573399961 0.616100013 0.372099996 
0.57949996 0.610000014 0.365999997 
0.57949996 0.610000014 0.372099996 
0.57949996 0.616100013 0.365999997 
0.57949996 0.616100013 0.372099996 
0.573399961 0.610000014 0.378199995 
0.573399961 0.610000014 0.384299994 
0.573399961 0.616100013 0.378199995 
0.573399961 0.616100013 0.384299994 
0.57949996 0.610000014 0.378199995 
0.57949996 0.610000014 0.384299994 
0.57949996 0.616100013 0.378199995 
0.57949996 0.616100013 0.384299994 
0.573399961 0.622200012 0.305000007 
0.573399961 0.622200012 0.311100006 
0.573399961 0.628300011 0.305000007 
0.573399961 0.628300011 0.311100006 
0.573399961 0.622200012 0.317200005 
0.573399961 0.622200012 0.323300004 
0.573399961 0.628300011 0.317200005 
0.573399961 0.628300011 0.323300004 
0.57949996 0.622200012 0.317200005 
0.57949996 0.622200012 0.323300004 
0.57949996 0.628300011 0.323300004 
0.573399961 0.622200012 0.329400003 
0.573399961 0.622200012 0.335500002 
0.573399961 0.628300011 0.329400003 
0.573399961 0.628300011 0.335500002 
0.57949996 0.622200012 0.329400003 
0.57949996 0.622200012 0.335500002 
0.57949996 0.628300011 0.329400003 
0.57949996 0.628300011 0.335500002 
0.573399961 0.622200012 0.341600001 
0.573399961 0.622200012 0.3477 
0.573399961 0.628300011 0.341600001 
0.573399961 0.628300011 0.3477 
0.57949996 0.622200012 0.341600001 
0.57949996 0.622200012 0.3477 
0.57949996 0.628300011 0.341600001 
0.57949996 0.628300011 0.3477 
0.573399961 0.622200012 0.353799999 
0.573399961 0.622200012 0.359899998 
0.573399961 0.628300011 0.353799999 
0.573399961 0.628300011 0.359899998 
0.57949996 0.622200012 0.353799999 
0.57949996 0.622200012 0.359899998 
0.57949996 0.628300011 0.353799999 
0.57949996 0.628300011 0.359899998 
0.573399961 0.622200012 0.365999997 
0.573399961 0.622200012 0.372099996 
0.573399961 0.628300011 0.365999997 
0.573399961 0.628300011 0.372099996 
0.57949996 0.622200012 0.365999997 
0.57949996 0.622200012 0.372099996 
0.57949996 0.628300011 0.365999997 
0.57949996 0.628300011 0.372099996 
0.573399961 0.622200012 0.378199995 
0.573399961 0.622200012 0.384299994 
0.573399961 0.628300011 0.378199995 
0.573399961 0.628300011 0.384299994 
0.57949996 0.622200012 0.378199995 
0.57949996 0.622200012 0.384299994 
0.57949996 0.628300011 0.378199995 
0.57949996 0.628300011 0.384299994 
0.573399961 0.63440001 0.311100006 
0.573399961 0.640500009 0.311100006 
0.573399961 0.63440001 0.317200005 
0.573399961 0.63440001 0.323300004 
0.573399961 0.640500009 0.317200005 
0.573399961 0.640500009 0.323300004 
0.573399961 0.63440001 0.329400003 
0.573399961 0.63440001 0.335500002 
0.573399961 0.640500009 0.329400003 
0.573399961 0.640500009 0.335500002 
0.57949996 0.63440001 0.335500002 
0.573399961 0.63440001 0.341600001 
0.573399961 0.63440001 0.3477 
0.573399961 0.640500009 0.341600001 
0.573399961 0.640500009 0.3477 
0.57949996 0.63440001 0.341600001 
0.57949996 0.63440001 0.3477 
0.57949996 0.640500009 0.341600001 
0.57949996 0.640500009 0.3477 
0.573399961 0.63440001 0.353799999 
0.573399961 0.63440001 0.359899998 
0.573399961 0.640500009 0.353799999 
0.573399961 0.640500009 0.359899998 
0.57949996 0.63440001 0.353799999 
0.57949996 0.63440001 0.359899998 
0.57949996 0.640500009 0.353799999 
0.57949996 0.640500009 0.359899998 
0.573399961 0.63440001 0.365999997 
0.573399961 0.63440001 0.372099996 
0.573399961 0.640500009 0.365999997 
0.573399961 0.640500009 0.372099996 
0.57949996 0.63440001 0.365999997 
0.57949996 0.63440001 0.372099996 
0.57949996 0.640500009 0.365999997 
0.57949996 0.640500009 0.372099996 
0.573399961 0.63440001 0.378199995 
0.573399961 0.63440001 0.384299994 
0.573399961 0.640500009 0.378199995 
0.573399961 0.640500009 0.384299994 
0.57949996 0.63440001 0.378199995 
0.57949996 0.63440001 0.384299994 
0.57949996 0.640500009 0.378199995 
0.57949996 0.640500009 0.384299994 
0.573399961 0.646600008 0.317200005 
0.573399961 0.646600008 0.323300004 
0.573399961 0.652700007 0.323300004 
0.573399961 0.646600008 0.329400003 
0.573399961 0.646600008 0.335500002 
0.573399961 0.652700007 0.329400003 
0.573399961 0.652700007 0.335500002 
0.573399961 0.646600008 0.341600001 
0.573399961 0.646600008 0.3477 
0.573399961 0.652700007 0.341600001 
0.573399961 0.652700007 0.3477 
0.57949996 0.646600008 0.3477 
0.57949996 0.652700007 0.3477 
0.573399961 0.646600008 0.353799999 
0.573399961 0.646600008 0.359899998 
0.573399961 0.652700007 0.353799999 
0.573399961 0.652700007 0.359899998 
0.57949996 0.646600008 0.353799999 
0.57949996 0.646600008 0.359899998 
0.57949996 0.652700007 0.353799999 
0.57949996 0.652700007 0.359899998 
0.573399961 0.646600008 0.365999997 
0.573399961 0.646600008 0.372099996 
0.573399961 0.652700007 0.365999997 
0.573399961 0.652700007 0.372099996 
0.57949996 0.646600008 0.365999997 
0.57949996 0.646600008 0.372099996 
0.57949996 0.652700007 0.365999997 
0.57949996 0.652700007 0.372099996 
0.573399961 0.646600008 0.378199995 
0.573399961 0.646600008 0.384299994 
0.573399961 0.652700007 0.378199995 
0.573399961 0.652700007 0.384299994 
0.57949996 0.646600008 0.378199995 
0.57949996 0.646600008 0.384299994 
0.57949996 0.652700007 0.378199995 
0.57949996 0.652700007 0.384299994 
0.573399961 0.658800006 0.329400003 
0.573399961 0.658800006 0.335500002 
0.573399961 0.664900005 0.335500002 
0.573399961 0.658800006 0.341600001 
0.573399961 0.658800006 0.3477 
0.573399961 0.664900005 0.341600001 
0.573399961 0.664900005 0.3477 
0.57949996 0.658800006 0.341600001 
0.57949996 0.658800006 0.3477 
0.57949996 0.664900005 0.341600001 
0.57949996 0.664900005 0.3477 
0.573399961 0.658800006 0.353799999 
0.573399961 0.658800006 0.359899998 
0.573399961 0.664900005 0.353799999 
0.573399961 0.664900005 0.359899998 
0.57949996 0.658800006 0.353799999 
0.57949996 0.658800006 0.359899998 
0.57949996 0.664900005 0.353799999 
0.57949996 0.664900005 0.359899998 
0.573399961 0.658800006 0.365999997 
0.573399961 0.658800006 0.372099996 
0.573399961 0.664900005 0.365999997 
0.573399961 0.664900005 0.372099996 
0.57949996 0.658800006 0.365999997 
0.57949996 0.658800006 0.372099996 
0.57949996 0.664900005 0.365999997 
0.57949996 0.664900005 0.372099996 
0.573399961 0.658800006 0.378199995 
0.573399961 0.658800006 0.384299994 
0.573399961 0.664900005 0.378199995 
0.573399961 0.664900005 0.384299994 
0.57949996 0.658800006 0.378199995 
0.57949996 0.658800006 0.384299994 
0.57949996 0.664900005 0.378199995 
0.57949996 0.664900005 0.384299994 
0.573399961 0.671000004 0.341600001 
0.573399961 0.671000004 0.3477 
0.573399961 0.677100003 0.3477 
0.57949996 0.671000004 0.3477 
0.573399961 0.671000004 0.353799999 
0.573399961 0.671000004 0.359899998 
0.573399961 0.677100003 0.353799999 
0.573399961 0.677100003 0.359899998 
0.57949996 0.671000004 0.353799999 
0.57949996 0.671000004 0.359899998 
0.57949996 0.677100003 0.353799999 
0.57949996 0.677100003 0.359899998 
0.573399961 0.671000004 0.365999997 
0.573399961 0.671000004 0.372099996 
0.573399961 0.677100003 0.365999997 
0.573399961 0.677100003 0.372099996 
0.57949996 0.671000004 0.365999997 
0.57949996 0.671000004 0.372099996 
0.57949996 0.677100003 0.365999997 
0.57949996 0.677100003 0.372099996 
0.573399961 0.671000004 0.378199995 
0.573399961 0.671000004 0.384299994 
0.573399961 0.677100003 0.378199995 
0.573399961 0.677100003 0.384299994 
0.57949996 0.671000004 0.378199995 
0.57949996 0.671000004 0.384299994 
0.57949996 0.677100003 0.378199995 
0.57949996 0.677100003 0.384299994 
0.487999976 0.585600019 0.390399992 
0.487999976 0.585600019 0.396499991 
0.487999976 0.591700017 0.390399992 
0.487999976 0.591700017 0.396499991 
0.494100004 0.585600019 0.390399992 
0.494100004 0.585600019 0.396499991 
0.494100004 0.591700017 0.390399992 
0.494100004 0.591700017 0.396499991 
0.487999976 0.585600019 0.40259999 
0.487999976 0.585600019 0.408699989 
0.487999976 0.591700017 0.40259999 
0.487999976 0.591700017 0.408699989 
0.494100004 0.585600019 0.40259999 
0.494100004 0.585600019 0.408699989 
0.494100004 0.591700017 0.40259999 
0.494100004 0.591700017 0.408699989 
0.487999976 0.585600019 0.414799988 
0.487999976 0.585600019 0.420899987 
0.487999976 0.591700017 0.414799988 
0.487999976 0.591700017 0.420899987 
0.494100004 0.585600019 0.414799988 
0.494100004 0.585600019 0.420899987 
0.494100004 0.591700017 0.414799988 
0.494100004 0.591700017 0.420899987 
0.487999976 0.585600019 0.426999986 
0.487999976 0.585600019 0.433099985 
0.487999976 0.591700017 0.426999986 
0.487999976 0.591700017 0.433099985 
0.494100004 0.585600019 0.426999986 
0.494100004 0.585600019 0.433099985 
0.494100004 0.591700017 0.426999986 
0.494100004 0.591700017 0.433099985 
0.487999976 0.585600019 0.439199984 
0.487999976 0.585600019 0.445299983 
0.487999976 0.591700017 0.439199984 
0.487999976 0.591700017 0.445299983 
0.494100004 0.585600019 0.439199984 
0.494100004 0.585600019 0.445299983 
0.494100004 0.591700017 0.439199984 
0.494100004 0.591700017 0.445299983 
0.487999976 0.585600019 0.451399982 
0.487999976 0.585600019 0.457499981 
0.487999976 0.591700017 0.451399982 
0.487999976 0.591700017 0.457499981 
0.494100004 0.585600019 0.451399982 
0.494100004 0.585600019 0.457499981 
0.494100004 0.591700017 0.451399982 
0.494100004 0.591700017 0.457499981 
0.487999976 0.597800016 0.390399992 
0.487999976 0.597800016 0.396499991 
0.487999976 0.603900015 0.390399992 
0.487999976 0.603900015 0.396499991 
0.494100004 0.597800016 0.390399992 
0.494100004 0.597800016 0.396499991 
0.494100004 0.603900015 0.390399992 
0.494100004 0.603900015 0.396499991 
0.487999976 0.597800016 0.40259999 
0.487999976 0.597800016 0.408699989 
0.487999976 0.603900015 0.40259999 
0.487999976 0.603900015 0.408699989 
0.494100004 0.597800016 0.40259999 
0.494100004 0.597800016 0.408699989 
0.494100004 0.603900015 0.40259999 
0.494100004 0.603900015 0.408699989 
0.487999976 0.597800016 0.414799988 
0.487999976 0.597800016 0.420899987 
0.487999976 0.603900015 0.414799988 
0.487999976 0.603900015 0.420899987 
0.494100004 0.597800016 0.414799988 
0.494100004 0.597800016 0.420899987 
0.494100004 0.603900015 0.414799988 
0.494100004 0.603900015 0.420899987 
0.487999976 0.597800016 0.426999986 
0.487999976 0.597800016 0.433099985 
0.487999976 0.603900015 0.426999986 
0.487999976 0.603900015 0.433099985 
0.494100004 0.597800016 0.426999986 
0.494100004 0.597800016 0.433099985 
0.494100004 0.603900015 0.426999986 
0.494100004 0.603900015 0.433099985 
0.487999976 0.597800016 0.439199984 
0.487999976 0.597800016 0.445299983 
0.487999976 0.603900015 0.439199984 
0.487999976 0.603900015 0.445299983 
0.494100004 0.597800016 0.439199984 
0.494100004 0.597800016 0.445299983 
0.494100004 0.603900015 0.439199984 
0.494100004 0.603900015 0.445299983 
0.487999976 0.597800016 0.451399982 
0.487999976 0.597800016 0.457499981 
0.487999976 0.603900015 0.451399982 
0.487999976 0.603900015 0.457499981 
0.494100004 0.597800016 0.451399982 
0.494100004 0.597800016 0.457499981 
0.494100004 0.603900015 0.451399982 
0.494100004 0.603900015 0.457499981 
0.487999976 0.610000014 0.390399992 
0.487999976 0.610000014 0.396499991 
0.487999976 0.616100013 0.390399992 
0.487999976 0.616100013 0.396499991 
0.494100004 0.610000014 0.390399992 
0.494100004 0.610000014 0.396499991 
0.494100004 0.616100013 0.390399992 
0.494100004 0.616100013 0.396499991 
0.487999976 0.610000014 0.40259999 
0.487999976 0.610000014 0.408699989 
0.487999976 0.616100013 0.40259999 
0.487999976 0.616100013 0.408699989 
0.494100004 0.610000014 0.40259999 
0.494100004 0.610000014 0.408699989 
0.494100004 0.616100013 0.40259999 
0.494100004 0.616100013 0.408699989 
0.487999976 0.610000014 0.414799988 
0.487999976 0.610000014 0.420899987 
0.487999976 0.616100013 0.414799988 
0.487999976 0.616100013 0.420899987 
0.494100004 0.610000014 0.414799988 
0.494100004 0.610000014 0.420899987 
0.494100004 0.616100013 0.414799988 
0.494100004 0.616100013 0.420899987 
0.487999976 0.610000014 0.426999986 
0.487999976 0.610000014 0.433099985 
0.487999976 0.616100013 0.426999986 
0.487999976 0.616100013 0.433099985 
0.494100004 0.610000014 0.426999986 
0.494100004 0.610000014 0.433099985 
0.494100004 0.616100013 0.426999986 
0.494100004 0.616100013 0.433099985 
0.487999976 0.610000014 0.439199984 
0.487999976 0.610000014 0.445299983 
0.487999976 0.616100013 0.439199984 
0.487999976 0.616100013 0.445299983 
0.494100004 0.610000014 0.439199984 
0.494100004 0.610000014 0.445299983 
0.494100004 0.616100013 0.439199984 
0.494100004 0.616100013 0.445299983 
0.487999976 0.610000014 0.451399982 
0.487999976 0.610000014 0.457499981 
0.487999976 0.616100013 0.451399982 
0.487999976 0.616100013 0.457499981 
0.494100004 0.610000014 0.451399982 
0.494100004 0.610000014 0.457499981 
0.494100004 0.616100013 0.451399982 
0.494100004 0.616100013 0.457499981 
0.487999976 0.622200012 0.390399992 
0.487999976 0.622200012 0.396499991 
0.487999976 0.628300011 0.390399992 
0.487999976 0.628300011 0.396499991 
0.494100004 0.622200012 0.390399992 
0.494100004 0.622200012 0.396499991 
0.494100004 0.628300011 0.390399992 
0.494100004 0.628300011 0.396499991 
0.487999976 0.622200012 0.40259999 
0.487999976 0.622200012 0.408699989 
0.487999976 0.628300011 0.40259999 
0.487999976 0.628300011 0.408699989 
0.494100004 0.622200012 0.40259999 
